ply
format ascii 1.0
element vertex 1389
property float x
property float y
property float z
property uchar red
property uchar green
property uchar blue
element face 0
property list uchar int vertex_indices
end_header
-0.729115 0.228557 -3.45344 0 0 0
-1.12513 0.221708 -3.49967 0 0 0
-0.406004 0.222708 -3.46249 0 0 0
-0.950338 0.21603 -3.48842 0 0 0
-0.953056 0.219102 -3.49594 0 0 0
0.259812 -0.00225261 -2.00095 0 0 0
0.258281 -0.00232988 -2.00758 0 0 0
0.101413 -0.00442219 -1.99747 0 0 0
0.160494 -0.00567967 -1.99489 0 0 0
0.274232 -0.00197435 -2.02121 0 0 0
0.155634 -0.0060289 -1.99702 0 0 0
0.151229 -0.00614056 -1.99728 0 0 0
0.151229 -0.00614056 -1.99728 0 0 0
-0.00766702 -0.00701021 -2.00811 0 0 0
-0.00766702 -0.00701021 -2.00811 0 0 0
0.278872 -0.00343315 -2.02055 0 0 0
0.0396223 -0.00366596 -2.03871 0 0 0
-0.0629307 -0.00867196 -2.02023 0 0 0
-0.0614595 -0.00863065 -2.01526 0 0 0
0.120343 -0.00870327 -2.00576 0 0 0
0.121887 -0.00866576 -2.00278 0 0 0
-1.04758 0.175166 -3.50325 0 0 0
0.278951 -0.00965269 -2.00668 0 0 0
0.168458 -0.0129819 -1.99439 0 0 0
0.150539 -0.0127355 -1.99478 0 0 0
0.292205 -0.00974957 -2.01246 0 0 0
-0.0454448 -0.013388 -2.01216 0 0 0
0.227124 -0.0149017 -1.97678 0 0 0
-0.0425437 -0.0150292 -2.0116 0 0 0
0.293366 -0.0116861 -2.01413 0 0 0
0.291598 -0.0110089 -2.02322 0 0 0
0.249862 -0.0151569 -1.99504 0 0 0
-0.0112113 -0.0167226 -2.00765 0 0 0
0.257635 -0.0177769 -2.01176 0 0 0
0.105167 -0.0233565 -1.99918 0 0 0
0.104724 -0.0231878 -2.00653 0 0 0
0.439821 -0.00831805 -2.11045 0 0 0
0.399673 -0.0147171 -2.05727 0 0 0
-1.24238 0.140829 -3.5908 0 0 0
-1.09849 0.137179 -3.53873 0 0 0
-0.0937395 -0.0254516 -2.02806 0 0 0
-0.0937395 -0.0254516 -2.02806 0 0 0
0.427669 -0.0131553 -2.09858 0 0 0
-0.0330583 -0.0287842 -2.00758 0 0 0
0.0100097 -0.0281866 -2.00425 0 0 0
0.246215 -0.0273166 -1.98861 0 0 0
0.103862 -0.0304662 -1.98079 0 0 0
0.378236 -0.0189645 -2.05662 0 0 0
0.398377 -0.0182845 -2.06405 0 0 0
0.291187 -0.0240091 -2.02128 0 0 0
-0.0141823 -0.029946 -2.00714 0 0 0
0.0428909 -0.024541 -2.04432 0 0 0
0.171371 -0.0291928 -1.9935 0 0 0
0.21808 -0.0295852 -1.98802 0 0 0
0.417561 -0.0185851 -2.07612 0 0 0
-0.0361221 -0.0314019 -2.01085 0 0 0
0.190788 -0.0313815 -1.98035 0 0 0
0.382584 -0.0215546 -2.06191 0 0 0
0.389224 -0.00674954 -2.19584 0 0 0
0.106291 -0.0330887 -1.99733 0 0 0
-0.140442 -0.0296395 -2.07483 0 0 0
-0.139149 -0.0303317 -2.07155 0 0 0
-0.160355 -0.0285337 -2.09388 0 0 0
0.198514 -0.0360393 -1.99235 0 0 0
-1.30934 0.116308 -3.65856 0 0 0
-0.0680315 -0.0380709 -2.00641 0 0 0
-1.41043 0.120624 -3.72036 0 0 0
-0.158486 -0.0328239 -2.0889 0 0 0
-0.0632962 -0.0389179 -2.00729 0 0 0
-0.0869081 -0.0387641 -2.01376 0 0 0
-0.0877396 -0.0391964 -2.01571 0 0 0
0.429883 -0.0276432 -2.05467 0 0 0
-0.209292 -0.028027 -2.14552 0 0 0
-0.209292 -0.028027 -2.14552 0 0 0
-1.45505 0.118315 -3.77485 0 0 0
0.37031 -0.0319494 -2.04921 0 0 0
-0.0596921 -0.0432514 -2.00748 0 0 0
0.050616 -0.0443462 -1.99971 0 0 0
-0.0288164 -0.0455018 -2.00404 0 0 0
-1.3557 0.0913498 -3.66957 0 0 0
0.450265 -0.0397713 -2.0433 0 0 0
0.0070994 -0.0502654 -1.99871 0 0 0
-0.0334993 -0.0546474 -2.00451 0 0 0
0.0386534 -0.0542497 -2.00006 0 0 0
0.200457 -0.0539556 -1.97812 0 0 0
-0.0399015 -0.0567836 -1.994 0 0 0
0.13546 -0.0551115 -1.99142 0 0 0
0.137086 -0.0562281 -1.97902 0 0 0
0.55133 -0.0231073 -2.37323 0 0 0
0.0189402 -0.0609586 -1.99641 0 0 0
0.354978 -0.0551404 -2.00903 0 0 0
0.354978 -0.0551404 -2.00903 0 0 0
-0.189957 -0.0565977 -2.11089 0 0 0
0.0917886 -0.0614057 -1.98491 0 0 0
0.09121 -0.0614341 -1.98647 0 0 0
0.128661 -0.0607187 -2.00111 0 0 0
0.165088 -0.0629783 -1.97279 0 0 0
0.322141 -0.0584272 -2.01407 0 0 0
0.558329 -0.0274943 -2.38633 0 0 0
0.0316917 -0.0649933 -1.99382 0 0 0
0.0756273 -0.0651461 -2.00394 0 0 0
-0.207728 -0.060984 -2.13036 0 0 0
-1.17977 0.0331676 -3.56911 0 0 0
0.310219 -0.0626144 -2.00769 0 0 0
0.255162 -0.0652706 -1.9798 0 0 0
0.547286 -0.052447 -2.12139 0 0 0
0.141874 -0.0680011 -1.9821 0 0 0
-1.07753 0.0239215 -3.52277 0 0 0
0.062773 -0.0714537 -1.99269 0 0 0
0.193233 -0.0696689 -1.98653 0 0 0
0.0388153 -0.0722425 -1.99112 0 0 0
0.262734 -0.0697259 -1.96917 0 0 0
0.0788152 -0.0728441 -1.97894 0 0 0
0.0520195 -0.0752265 -1.9904 0 0 0
0.497519 -0.0609628 -2.11135 0 0 0
0.0787567 -0.0760367 -2.00507 0 0 0
0.180611 -0.0751487 -1.98572 0 0 0
0.426541 -0.0669699 -2.04951 0 0 0
0.049292 -0.0766395 -2.00804 0 0 0
0.00333507 -0.0799718 -1.99618 0 0 0
0.406059 -0.0703737 -2.04581 0 0 0
0.490249 -0.0624375 -2.15607 0 0 0
0.498245 -0.0627262 -2.16947 0 0 0
0.0898394 -0.081618 -1.99177 0 0 0
-0.0360438 -0.084049 -1.99751 0 0 0
-1.29954 -0.00798552 -3.6261 0 0 0
0.162688 -0.0815184 -1.97449 0 0 0
0.110137 -0.0830043 -1.99781 0 0 0
0.600742 -0.060828 -2.24332 0 0 0
-0.0472769 -0.0876389 -2.00518 0 0 0
0.00552152 -0.0876949 -1.99227 0 0 0
0.419821 -0.079898 -2.0451 0 0 0
-0.0488622 -0.0920944 -2.00046 0 0 0
0.607173 -0.0689755 -2.23162 0 0 0
-0.233124 -0.0889826 -2.18537 0 0 0
-0.0630347 -0.0964906 -1.9752 0 0 0
-1.12075 -0.0233516 -3.58794 0 0 0
0.0601726 -0.0954516 -1.99981 0 0 0
0.528562 -0.0756629 -2.21208 0 0 0
0.48056 -0.0824086 -2.1078 0 0 0
0.494137 -0.0801863 -2.16035 0 0 0
0.299351 -0.0915453 -2.01939 0 0 0
0.629495 -0.0781776 -2.29536 0 0 0
0.375037 -0.0972919 -2.04381 0 0 0
0.370068 -0.0990426 -2.04956 0 0 0
0.503104 -0.0969821 -2.12283 0 0 0
0.447384 -0.105344 -2.02025 0 0 0
0.497237 -0.109661 -2.06254 0 0 0
-0.956339 -0.135178 -3.45998 0 0 0
0.392441 -0.129957 -2.04118 0 0 0
0.0185817 -0.145859 -2.00205 0 0 0
-0.0814531 -0.151561 -2.01639 0 0 0
-0.0396049 -0.151101 -2.00671 0 0 0
0.172115 -0.143283 -1.9863 0 0 0
-0.0172843 -0.15148 -1.99865 0 0 0
0.265545 -0.141696 -2.01648 0 0 0
0.288583 -0.142448 -2.02815 0 0 0
-1.23415 -0.192148 -3.5538 0 0 0
0.065373 -0.158341 -2.01148 0 0 0
0.066721 -0.158105 -2.00687 0 0 0
0.083607 -0.16162 -1.99345 0 0 0
0.365635 -0.155685 -2.03369 0 0 0
0.463775 -0.164249 -2.1381 0 0 0
0.316879 -0.166989 -2.01794 0 0 0
0.316774 -0.166899 -2.01812 0 0 0
0.138854 -0.172552 -1.99132 0 0 0
-0.0167924 -0.179356 -1.99998 0 0 0
-0.0166652 -0.179639 -1.9998 0 0 0
0.150076 -0.176165 -1.99056 0 0 0
0.15873 -0.176664 -1.98534 0 0 0
0.159986 -0.17686 -1.97993 0 0 0
0.396923 -0.172782 -2.08148 0 0 0
0.072722 -0.185593 -1.99273 0 0 0
0.073128 -0.184927 -1.99084 0 0 0
0.393219 -0.177183 -2.05442 0 0 0
0.0846557 -0.185877 -1.99269 0 0 0
-0.574734 -0.235748 -2.77668 0 0 0
0.354278 -0.180221 -2.02684 0 0 0
-0.0338819 -0.194663 -1.99802 0 0 0
0.399603 -0.182021 -2.04378 0 0 0
0.503904 -0.181293 -2.07422 0 0 0
0.430119 -0.182001 -2.05433 0 0 0
0.108589 -0.190503 -1.98844 0 0 0
0.0368921 -0.194367 -1.9943 0 0 0
-0.561387 -0.247164 -2.76023 0 0 0
-1.07302 -0.286536 -2.95555 0 0 0
0.333314 -0.190856 -2.04395 0 0 0
-0.00519809 -0.201629 -1.99915 0 0 0
0.527924 -0.191021 -2.09179 0 0 0
0.301452 -0.193765 -2.00614 0 0 0
0.0750887 -0.20365 -1.98939 0 0 0
0.389233 -0.196035 -2.03709 0 0 0
0.501102 -0.198457 -2.12674 0 0 0
0.504603 -0.197632 -2.06973 0 0 0
0.41748 -0.200571 -2.05058 0 0 0
-0.0115639 -0.213247 -1.9964 0 0 0
0.0941427 -0.208921 -1.98397 0 0 0
0.23715 -0.2038 -1.97641 0 0 0
-0.637203 -0.289606 -2.7759 0 0 0
0.0614291 -0.217305 -1.98852 0 0 0
0.0614291 -0.217305 -1.98852 0 0 0
0.12127 -0.214461 -1.98526 0 0 0
0.369237 -0.214278 -2.04326 0 0 0
0.488814 -0.215482 -2.15475 0 0 0
0.488814 -0.215482 -2.15475 0 0 0
-0.0391592 -0.228815 -1.99661 0 0 0
-0.576046 -0.302121 -2.75157 0 0 0
0.079077 -0.225801 -1.9707 0 0 0
-0.579902 -0.309078 -2.76067 0 0 0
-0.0406757 -0.236188 -1.99277 0 0 0
0.421796 -0.221586 -2.06353 0 0 0
-0.9543 -0.345217 -2.86873 0 0 0
0.00613359 -0.235171 -1.98461 0 0 0
0.0151222 -0.236381 -1.98632 0 0 0
0.380806 -0.224274 -2.03813 0 0 0
-1.1166 -0.366621 -2.97813 0 0 0
-0.568452 -0.318071 -2.76059 0 0 0
-0.947231 -0.35776 -2.85083 0 0 0
0.0668345 -0.242414 -1.97988 0 0 0
0.347186 -0.231653 -1.97638 0 0 0
-0.814948 -0.361787 -2.89758 0 0 0
-0.832288 -0.3636 -2.90486 0 0 0
0.181265 -0.240668 -1.97724 0 0 0
0.178221 -0.240596 -1.97869 0 0 0
0.178221 -0.240596 -1.97869 0 0 0
0.055867 -0.248963 -1.98083 0 0 0
0.166903 -0.245152 -1.97636 0 0 0
0.403142 -0.244785 -2.07415 0 0 0
0.242104 -0.244711 -1.96841 0 0 0
-0.0309446 -0.259476 -1.98618 0 0 0
0.317369 -0.25253 -2.02308 0 0 0
0.362826 -0.254373 -2.04927 0 0 0
0.131802 -0.257847 -1.97617 0 0 0
0.151317 -0.255956 -1.97244 0 0 0
0.105556 -0.261877 -1.97853 0 0 0
0.321511 -0.258192 -2.02595 0 0 0
0.381108 -0.263459 -2.05556 0 0 0
0.104625 -0.266926 -1.98394 0 0 0
0.505456 -0.273763 -2.16947 0 0 0
0.0702794 -0.273042 -1.97606 0 0 0
0.0568394 -0.276478 -1.97665 0 0 0
0.0671684 -0.279688 -1.97119 0 0 0
0.185948 -0.273735 -1.96633 0 0 0
0.185839 -0.273687 -1.96597 0 0 0
1.43621 -0.584192 -5.07222 0 0 0
0.123838 -0.278114 -1.96985 0 0 0
-0.467228 0.832701 -4.65501 0 0 0
0.150719 0.533575 -3.73247 0 0 0
0.150719 0.533575 -3.73247 0 0 0
0.194416 0.593436 -4.05068 0 0 0
-0.653263 0.652687 -4.42052 0 0 0
-0.586149 0.558691 -4.33765 0 0 0
-0.329295 0.500001 -4.21732 0 0 0
-0.755323 0.350996 -3.48985 0 0 0
-0.540877 0.343987 -3.46502 0 0 0
0.322033 0.340633 -3.92677 0 0 0
-0.220744 0.269989 -3.53768 0 0 0
-0.0663632 0.274429 -3.6106 0 0 0
-0.999727 0.222107 -3.48844 0 0 0
0.162023 0.00532836 -2.02903 0 0 0
-0.809851 0.194261 -3.44162 0 0 0
0.240515 -0.000886634 -1.99159 0 0 0
0.144567 -0.00415695 -1.9925 0 0 0
0.144551 -0.00415354 -1.993 0 0 0
0.295915 -0.00553351 -2.02296 0 0 0
-0.0549034 -0.0119146 -2.01556 0 0 0
0.0405694 -0.0128983 -2.0359 0 0 0
-1.16245 0.163579 -3.58033 0 0 0
0.44683 0.00327345 -2.16391 0 0 0
-1.04553 0.143135 -3.45399 0 0 0
0.127255 -0.023582 -1.99315 0 0 0
0.189521 -0.0259101 -1.98461 0 0 0
0.189521 -0.0259101 -1.98461 0 0 0
-1.2213 0.131153 -3.56038 0 0 0
0.0161327 -0.0290858 -2.00272 0 0 0
0.140896 -0.0291482 -1.9963 0 0 0
0.164734 -0.030362 -1.99337 0 0 0
-0.146008 -0.0272781 -2.07651 0 0 0
0.0410665 -0.0308735 -2.03106 0 0 0
-1.31906 0.115783 -3.58068 0 0 0
-0.0321488 -0.0416881 -2.01509 0 0 0
0.0463581 -0.0417802 -1.9947 0 0 0
0.489495 -0.0202781 -2.24018 0 0 0
0.0495468 -0.0497663 -1.99691 0 0 0
-0.224712 -0.0415073 -2.14884 0 0 0
-0.00716628 -0.0523421 -1.99971 0 0 0
0.28462 -0.0477779 -1.9991 0 0 0
0.313687 -0.0452436 -2.0379 0 0 0
0.0731646 -0.0534228 -1.99281 0 0 0
0.195713 -0.0549615 -1.9769 0 0 0
0.55505 -0.0209008 -2.37373 0 0 0
0.197009 -0.0570647 -1.98976 0 0 0
0.30666 -0.0543474 -1.99316 0 0 0
0.0755925 -0.0638146 -1.99034 0 0 0
0.550816 -0.0427968 -2.223 0 0 0
-0.96713 0.0316225 -3.456 0 0 0
0.216135 -0.069316 -1.96975 0 0 0
0.465813 -0.0578618 -2.0945 0 0 0
0.512537 -0.0464485 -2.28876 0 0 0
-0.0474064 -0.0733516 -1.99804 0 0 0
0.52107 -0.0568875 -2.16339 0 0 0
0.226629 -0.0767596 -1.99216 0 0 0
0.0345348 -0.0821064 -1.98502 0 0 0
0.139497 -0.0816866 -1.97776 0 0 0
0.333837 -0.0753556 -2.03331 0 0 0
0.0976464 -0.0862683 -1.97794 0 0 0
-0.0697623 -0.0896012 -1.9999 0 0 0
0.170133 -0.0884476 -1.97208 0 0 0
0.0356622 -0.0917397 -1.98625 0 0 0
0.296993 -0.0876012 -1.9755 0 0 0
0.376555 -0.0820123 -2.09883 0 0 0
0.343337 -0.0878608 -2.031 0 0 0
0.406778 -0.0856521 -2.07274 0 0 0
0.356431 -0.0918057 -2.06213 0 0 0
0.39099 -0.0921577 -2.04482 0 0 0
0.370367 -0.0940138 -2.04165 0 0 0
0.503205 -0.0948727 -2.13854 0 0 0
-1.09119 -0.14299 -3.48462 0 0 0
0.132616 -0.142176 -1.99374 0 0 0
0.0713034 -0.142932 -2.00058 0 0 0
0.264841 -0.142088 -2.03532 0 0 0
-1.22362 -0.183314 -3.55247 0 0 0
0.151315 -0.146057 -1.99212 0 0 0
0.280793 -0.142685 -2.02373 0 0 0
0.206179 -0.148829 -1.9817 0 0 0
0.239519 -0.153028 -1.98658 0 0 0
0.40283 -0.151654 -2.05109 0 0 0
0.0401568 -0.163416 -1.99611 0 0 0
0.240305 -0.165954 -1.98432 0 0 0
0.0538038 -0.177057 -1.99691 0 0 0
0.372232 -0.17003 -2.05196 0 0 0
0.261309 -0.173714 -1.99703 0 0 0
0.204882 -0.176584 -1.97941 0 0 0
0.128135 -0.184211 -1.99664 0 0 0
-0.910759 -0.254574 -2.92117 0 0 0
0.297522 -0.181056 -2.01608 0 0 0
-1.14226 -0.275442 -2.99545 0 0 0
-0.704442 -0.258242 -2.82031 0 0 0
0.401888 -0.186671 -2.00436 0 0 0
0.404943 -0.188312 -2.07322 0 0 0
0.325724 -0.190118 -2.02469 0 0 0
0.387679 -0.192322 -2.05038 0 0 0
0.145049 -0.199837 -1.98628 0 0 0
-0.120139 -0.213988 -2.0287 0 0 0
-0.120139 -0.213988 -2.0287 0 0 0
0.111955 -0.201646 -1.98432 0 0 0
0.281954 -0.197805 -2.00621 0 0 0
0.135267 -0.202503 -1.98636 0 0 0
0.277473 -0.198824 -1.99739 0 0 0
0.0768877 -0.20638 -1.99206 0 0 0
0.355637 -0.201382 -1.99661 0 0 0
-0.999571 -0.316797 -2.92858 0 0 0
-1.14648 -0.334399 -3.02738 0 0 0
0.411102 -0.207428 -2.04652 0 0 0
0.0709294 -0.21985 -1.98536 0 0 0
0.141326 -0.216704 -1.98491 0 0 0
-0.580336 -0.307873 -2.78602 0 0 0
-0.857429 -0.353664 -2.89444 0 0 0
0.454034 -0.230535 -2.01486 0 0 0
0.485295 -0.238383 -2.14551 0 0 0
-0.0403363 -0.252402 -1.9898 0 0 0
0.165265 -0.242112 -1.97504 0 0 0
-0.881097 -0.377018 -2.88778 0 0 0
-0.891138 -0.380224 -2.90092 0 0 0
0.422457 -0.259987 -2.34961 0 0 0
0.402703 -0.246587 -1.99032 0 0 0
-0.00109032 -0.264093 -1.9814 0 0 0
0.439026 -0.26609 -2.15331 0 0 0
0.361894 -0.257011 -1.98038 0 0 0
0.311638 -0.263549 -2.03232 0 0 0
0.261231 -0.269097 -1.97382 0 0 0
0.261231 -0.269097 -1.97382 0 0 0
0.333996 -0.272607 -1.99946 0 0 0
0.171485 -0.274285 -1.96494 0 0 0
0.442722 -0.271712 -1.99606 0 0 0
0.410827 -0.284889 -2.04738 0 0 0
0.343548 -0.307544 -2.20663 0 0 0
-0.357844 0.564555 -4.25554 0 0 0
0.169982 0.495774 -3.95698 0 0 0
0.102147 0.470952 -3.9658 0 0 0
-0.740886 0.242945 -3.44875 0 0 0
0.445569 0.33141 -4.24364 0 0 0
-0.993819 0.162931 -3.44749 0 0 0
0.202378 -0.0199579 -1.98186 0 0 0
-1.09516 0.142439 -3.50329 0 0 0
0.238215 -0.0251915 -1.96802 0 0 0
-0.806009 0.129062 -3.46006 0 0 0
-1.20696 0.114205 -3.57169 0 0 0
-0.0858036 -0.0369278 -2.01136 0 0 0
0.449944 -0.0358298 -2.04227 0 0 0
-0.0435947 -0.049579 -2.00607 0 0 0
-0.153185 -0.0559282 -2.07749 0 0 0
-0.00391158 -0.0600522 -2.00443 0 0 0
0.00621779 -0.0671515 -2.00104 0 0 0
-0.222272 -0.0679685 -2.15147 0 0 0
0.470267 -0.0671525 -2.13039 0 0 0
-0.204472 -0.0819583 -2.12272 0 0 0
0.261427 -0.0816318 -1.9853 0 0 0
0.60657 -0.0658531 -2.2518 0 0 0
-0.189099 -0.0916054 -2.10471 0 0 0
0.586337 -0.0685744 -2.26366 0 0 0
0.361625 -0.0871013 -2.04302 0 0 0
0.590045 -0.0734715 -2.25992 0 0 0
0.390608 -0.0871536 -2.09312 0 0 0
0.402332 -0.0939064 -2.05301 0 0 0
-1.24709 -0.0651578 -3.58252 0 0 0
0.444132 -0.096788 -2.07823 0 0 0
0.168714 -0.146237 -1.98995 0 0 0
0.168055 -0.146223 -1.99518 0 0 0
0.0157257 -0.180826 -1.99588 0 0 0
-0.613762 -0.222057 -2.79424 0 0 0
0.521754 -0.175914 -2.25201 0 0 0
-0.959798 -0.252999 -2.91374 0 0 0
0.509284 -0.177808 -2.19201 0 0 0
0.165645 -0.181914 -1.98491 0 0 0
-0.639119 -0.24495 -2.80256 0 0 0
0.0333637 -0.201046 -1.99674 0 0 0
0.268288 -0.194413 -1.98481 0 0 0
0.233403 -0.195531 -1.97845 0 0 0
-0.945874 -0.313918 -2.86118 0 0 0
-0.773999 -0.307319 -2.8207 0 0 0
-0.827336 -0.312258 -2.83053 0 0 0
-0.763633 -0.300111 -2.50628 0 0 0
-0.934237 -0.355713 -2.91216 0 0 0
0.455169 -0.235907 -2.15142 0 0 0
0.177466 -0.234475 -1.97357 0 0 0
0.0985707 -0.240415 -1.97856 0 0 0
-0.900141 -0.366129 -2.90588 0 0 0
-0.727001 -0.338352 -2.60064 0 0 0
0.00640453 -0.259783 -1.98116 0 0 0
0.461079 -0.24955 -2.07221 0 0 0
0.425963 -0.276895 -2.36032 0 0 0
0.482293 -0.258497 -2.0976 0 0 0
0.414438 -0.267451 -2.05845 0 0 0
-0.114027 -0.244785 -1.52462 0 0 0
0.0991668 -0.277182 -1.98856 0 0 0
1.4201 -0.602117 -5.09028 0 0 0
0.306993 -0.279241 -1.99728 0 0 0
0.456827 -0.289042 -2.04692 0 0 0
0.155743 -0.291317 -1.9678 0 0 0
0.175458 0.3248 -4.05077 0 0 0
-1.34614 0.169567 -3.6554 0 0 0
-0.0448545 -0.0186606 -2.01003 0 0 0
-0.0251043 -0.0264035 -2.00679 0 0 0
-0.158251 -0.0361514 -2.07779 0 0 0
0.187498 -0.0414895 -1.99221 0 0 0
0.034929 -0.0600805 -1.99545 0 0 0
0.471551 -0.0433259 -2.12041 0 0 0
-0.174488 -0.0594629 -2.10331 0 0 0
0.267641 -0.0663147 -1.99744 0 0 0
-1.21121 0.0219985 -3.57907 0 0 0
-0.0904846 -0.0910617 -2.01344 0 0 0
0.550384 -0.0836415 -2.15458 0 0 0
0.460768 -0.0953804 -2.06417 0 0 0
-0.967869 -0.104683 -3.35177 0 0 0
0.51293 -0.108257 -2.12913 0 0 0
-0.904081 -0.141076 -3.45323 0 0 0
0.61364 -0.127548 -2.27361 0 0 0
0.166805 -0.141883 -1.9884 0 0 0
0.271015 -0.144833 -2.00909 0 0 0
0.426896 -0.164337 -2.04014 0 0 0
-0.773909 -0.298136 -2.84384 0 0 0
0.440219 -0.210732 -2.12353 0 0 0
0.403266 -0.215863 -2.03858 0 0 0
-1.05837 -0.368926 -2.98663 0 0 0
-0.77454 -0.344892 -2.81062 0 0 0
0.462471 -0.241331 -2.10945 0 0 0
0.298518 -0.288815 -2.00248 0 0 0
-0.699762 0.345439 -3.47727 0 0 0
-0.227535 0.319623 -3.52931 0 0 0
-0.524007 0.279587 -3.45109 0 0 0
-1.12984 0.279654 -3.50513 0 0 0
-0.0547772 0.280969 -3.72712 0 0 0
-0.110742 -0.0418897 -2.03522 0 0 0
-0.135495 -0.0449829 -2.06256 0 0 0
0.279831 -0.0512248 -2.01453 0 0 0
0.27996 -0.0520815 -2.00222 0 0 0
0.35937 -0.0357128 -2.17372 0 0 0
-0.070954 -0.0735867 -2.00966 0 0 0
-1.29366 -6.3037e-05 -3.58919 0 0 0
-0.234093 -0.10098 -2.14984 0 0 0
-0.0860781 -0.111355 -1.98076 0 0 0
-0.211863 -0.115856 -2.13695 0 0 0
-0.664716 -0.300668 -2.77102 0 0 0
-0.73471 -0.339113 -2.82735 0 0 0
0.261432 -0.016981 -2.00958 0 0 0
-0.19963 -0.0481826 -2.13214 0 0 0
-0.19963 -0.0481826 -2.13214 0 0 0
-0.142257 -0.0682686 -2.06711 0 0 0
-0.150872 -0.0826839 -2.06139 0 0 0
-0.0407593 -0.174316 -2.00345 0 0 0
-0.0493212 -0.177551 -2.00637 0 0 0
-0.8066 -0.2292 -2.88706 0 0 0
-0.747004 -0.229399 -2.85779 0 0 0
-1.10184 -0.291318 -2.96067 0 0 0
-0.62353 -0.273986 -2.79713 0 0 0
-0.690646 -0.35884 -2.79434 0 0 0
-0.386454 0.331896 -3.47962 0 0 0
0.0740812 0.376204 -3.96528 0 0 0
0.402742 -0.0339541 -2.0535 0 0 0
0.185733 -0.0479314 -1.98296 0 0 0
-0.621049 -0.210521 -2.79705 0 0 0
-0.694773 -0.218947 -2.80327 0 0 0
-0.673817 -0.216127 -2.80752 0 0 0
0.210212 -0.271434 -1.95823 0 0 0
0.0584889 0.638798 -4.02796 0 0 0
0.0850073 0.387189 -3.94885 0 0 0
0.127534 -0.0246265 -1.98989 0 0 0
-1.15624 -0.13737 -3.50375 0 0 0
-1.15366 -0.171246 -3.48483 0 0 0
-0.815331 0.722086 -4.50214 0 0 0
-0.39693 0.724349 -4.62577 0 0 0
-0.918502 0.704904 -4.52828 0 0 0
-0.560277 0.688462 -4.38379 0 0 0
-0.803101 0.692238 -4.4797 0 0 0
-0.915238 0.682382 -4.51732 0 0 0
-0.571591 0.659641 -4.37798 0 0 0
-0.664669 0.65882 -4.41734 0 0 0
-0.827421 0.65073 -4.50052 0 0 0
0.0800174 0.608749 -4.06474 0 0 0
-0.725356 0.620598 -4.42424 0 0 0
-0.901328 0.621169 -4.51183 0 0 0
-0.822676 0.618252 -4.46796 0 0 0
-0.820621 0.596478 -4.46945 0 0 0
-0.0504974 0.576518 -4.07176 0 0 0
-0.787261 0.583845 -4.43778 0 0 0
-0.845432 0.580772 -4.48079 0 0 0
-0.848288 0.575945 -4.47358 0 0 0
-0.920382 0.575386 -4.50668 0 0 0
-0.921033 0.566747 -4.50877 0 0 0
0.136255 0.547022 -3.97736 0 0 0
-0.929803 0.555142 -4.50979 0 0 0
-0.146949 0.531036 -4.10158 0 0 0
0.136043 0.530742 -3.97137 0 0 0
-0.0875045 0.53239 -4.11511 0 0 0
-0.495442 0.52613 -4.30224 0 0 0
-0.770274 0.524883 -4.4449 0 0 0
0.00924187 0.497347 -4.04232 0 0 0
0.178669 0.493716 -3.93772 0 0 0
-0.420734 0.497318 -4.25947 0 0 0
-0.811769 0.500007 -4.46542 0 0 0
-0.679068 0.495893 -4.40051 0 0 0
0.10361 0.483991 -3.97378 0 0 0
-0.349199 0.486847 -4.22091 0 0 0
0.0520279 0.475801 -3.98899 0 0 0
-0.343516 0.482548 -4.21995 0 0 0
-0.0780819 0.477339 -4.05983 0 0 0
-0.0909645 0.464651 -4.06894 0 0 0
-0.371572 0.45864 -4.22842 0 0 0
-0.807939 0.456908 -4.44895 0 0 0
-0.742083 0.455572 -4.41757 0 0 0
-0.0473919 0.448089 -4.02684 0 0 0
0.119426 0.439706 -3.95333 0 0 0
0.206492 0.438596 -3.94992 0 0 0
-0.523308 0.433473 -4.28751 0 0 0
-0.00739686 0.431016 -4.06164 0 0 0
-0.0078436 0.4254 -4.01758 0 0 0
-0.255025 0.427012 -4.16527 0 0 0
-0.400311 0.405214 -4.22713 0 0 0
-0.400619 0.405399 -4.23164 0 0 0
0.382549 0.399249 -4.09375 0 0 0
0.119234 0.389876 -3.94964 0 0 0
0.151085 0.381686 -3.96381 0 0 0
-0.689307 0.341931 -3.46941 0 0 0
0.0642807 0.374092 -3.97388 0 0 0
-0.343764 0.345675 -3.50355 0 0 0
-0.446112 0.341587 -3.49072 0 0 0
-0.433467 0.332622 -3.48158 0 0 0
-0.498946 0.326895 -3.47709 0 0 0
-0.457998 0.325374 -3.47324 0 0 0
-0.388962 0.326791 -3.48531 0 0 0
-0.251569 0.327734 -3.52411 0 0 0
0.52096 0.369204 -4.53778 0 0 0
-0.720472 0.309699 -3.47117 0 0 0
-0.732685 0.300111 -3.48029 0 0 0
-0.001007 0.314531 -3.69233 0 0 0
-0.432507 0.267999 -3.47188 0 0 0
0.408062 0.283588 -4.09319 0 0 0
-0.444035 0.259584 -3.472 0 0 0
-0.196285 0.251785 -3.53223 0 0 0
-0.584868 0.24108 -3.4527 0 0 0
-0.33915 0.241826 -3.48905 0 0 0
-0.331963 0.241174 -3.49212 0 0 0
-0.73527 0.224222 -3.44419 0 0 0
-0.524663 0.22058 -3.45277 0 0 0
-0.0792555 0.230127 -3.61148 0 0 0
-0.0732097 0.22809 -3.57805 0 0 0
-0.936973 0.209183 -3.48482 0 0 0
-0.0837461 0.226933 -3.60679 0 0 0
-1.19128 0.205181 -3.62212 0 0 0
-0.34886 0.216593 -3.47575 0 0 0
-0.127599 0.220767 -3.55541 0 0 0
0.0255398 0.210527 -3.6109 0 0 0
0.438479 0.216111 -4.16936 0 0 0
-0.665217 0.192235 -3.43947 0 0 0
0.468673 0.213407 -4.25987 0 0 0
-1.19702 0.178694 -3.5906 0 0 0
-0.172951 0.193301 -3.53467 0 0 0
-1.18305 0.165174 -3.55617 0 0 0
0.109386 0.182403 -3.75692 0 0 0
0.182159 0.171643 -3.83842 0 0 0
-0.670755 0.145342 -3.45494 0 0 0
-0.476203 0.145133 -3.45893 0 0 0
-0.420856 0.142959 -3.4652 0 0 0
-0.679849 0.132251 -3.45652 0 0 0
-0.52032 0.128823 -3.45577 0 0 0
-0.169158 0.132305 -3.53487 0 0 0
-1.35786 0.107238 -3.74523 0 0 0
-0.608207 0.124633 -3.45489 0 0 0
-0.137797 0.125717 -3.54886 0 0 0
-0.0238835 0.120304 -3.64844 0 0 0
-0.292287 0.114599 -3.49358 0 0 0
-1.10489 0.0966613 -3.5658 0 0 0
0.0603289 0.118623 -3.63343 0 0 0
-0.0449804 0.108864 -3.60646 0 0 0
-0.248044 0.103973 -3.52456 0 0 0
-0.261468 0.0986331 -3.49926 0 0 0
-0.223175 0.0940303 -3.51635 0 0 0
-0.905212 0.0736008 -3.46622 0 0 0
-0.905212 0.0736008 -3.46622 0 0 0
-0.662741 0.0756453 -3.44595 0 0 0
-0.134278 0.085799 -3.56724 0 0 0
-1.17804 0.0590351 -3.60018 0 0 0
-0.552582 0.0737864 -3.44525 0 0 0
-0.542246 0.0726664 -3.44684 0 0 0
-1.21796 0.0542323 -3.62437 0 0 0
-1.17645 0.0537433 -3.60289 0 0 0
-0.0708443 0.0761962 -3.56122 0 0 0
-1.34362 0.0475691 -3.72932 0 0 0
-0.939183 0.056939 -3.47008 0 0 0
-0.457524 0.0675828 -3.45295 0 0 0
-0.192825 0.0708515 -3.53313 0 0 0
-0.384902 0.0588497 -3.46792 0 0 0
-0.165048 0.0641905 -3.55367 0 0 0
0.418628 0.0537179 -4.08139 0 0 0
0.448179 0.151604 -0.786585 0 0 0
-0.038132 0.0384331 -3.58558 0 0 0
-0.851416 0.0184807 -3.45355 0 0 0
-0.737489 0.0178971 -3.43315 0 0 0
-0.703549 0.0183921 -3.43632 0 0 0
-0.608106 0.0223034 -3.43708 0 0 0
-0.737662 0.0114773 -3.42167 0 0 0
-0.646658 0.0128898 -3.42935 0 0 0
-0.951219 0.00441475 -3.47503 0 0 0
-0.454898 0.0150324 -3.44571 0 0 0
-0.444447 0.0165987 -3.44024 0 0 0
0.448566 0.140768 -0.784473 0 0 0
-0.84045 0.00798948 -3.45919 0 0 0
-0.819562 0.00372303 -3.4409 0 0 0
0.446059 0.138663 -0.78371 0 0 0
-0.808198 0.00360804 -3.43726 0 0 0
-0.812628 -0.000230822 -3.439 0 0 0
-0.361176 0.00907237 -3.44913 0 0 0
-0.348148 0.00941825 -3.45036 0 0 0
-0.536733 0.00332494 -3.43621 0 0 0
-0.336946 0.00896902 -3.45117 0 0 0
-1.21633 -0.015993 -3.58619 0 0 0
-0.242277 0.0047321 -3.47649 0 0 0
-0.0280028 0.00148694 -3.58586 0 0 0
-0.1813 0.00208724 -3.49378 0 0 0
-0.294102 -0.000509621 -3.46594 0 0 0
-0.705682 -0.0117916 -3.42351 0 0 0
-0.191735 -0.00599201 -3.52323 0 0 0
-0.0472292 -0.00976311 -3.53662 0 0 0
-0.819215 -0.0193889 -3.44888 0 0 0
-0.685419 -0.0233169 -3.4253 0 0 0
-0.00629854 -0.0136077 -3.53275 0 0 0
-0.17308 -0.0162896 -3.49455 0 0 0
-0.0209059 -0.0204993 -3.58692 0 0 0
-0.00373212 -0.0184397 -3.52711 0 0 0
-1.29224 -0.0533183 -3.67169 0 0 0
-0.619038 -0.0346522 -3.41598 0 0 0
-0.356383 -0.0343972 -3.44255 0 0 0
-0.105288 -0.0387644 -3.53509 0 0 0
-0.306236 -0.0404131 -3.44424 0 0 0
-1.29049 -0.0724007 -3.64063 0 0 0
0.261254 -0.0425393 -3.85274 0 0 0
0.249725 -0.046059 -3.83404 0 0 0
0.0405186 -0.0696216 -3.63492 0 0 0
-0.0590002 -0.0657267 -3.48111 0 0 0
0.0889796 -0.0759385 -3.62679 0 0 0
0.00440461 -0.0698141 -3.46489 0 0 0
-0.645745 -0.091215 -3.39455 0 0 0
0.0581947 -0.0757493 -3.40609 0 0 0
-0.679541 -0.0974903 -3.40836 0 0 0
-0.368354 -0.101401 -3.4161 0 0 0
-0.361876 -0.0983235 -3.42446 0 0 0
-0.709174 -0.104748 -3.41393 0 0 0
-0.904642 -0.118293 -3.42883 0 0 0
-0.949273 -0.125208 -3.45888 0 0 0
-0.429505 -0.117084 -3.41656 0 0 0
-0.668664 -0.128587 -3.39264 0 0 0
0.15288 -0.0112702 -1.99405 0 0 0
-0.412869 -0.128873 -3.44082 0 0 0
-0.812032 -0.13817 -3.41237 0 0 0
-0.00489635 -0.0228308 -2.03131 0 0 0
-0.206614 -0.0373594 -2.14435 0 0 0
0.155618 -0.0196716 -1.98607 0 0 0
0.291353 -0.0177108 -2.01463 0 0 0
0.38102 -0.0214001 -2.05902 0 0 0
0.387355 -0.0229662 -2.04916 0 0 0
-1.11507 -0.171175 -3.54847 0 0 0
-0.0509604 -0.0341318 -2.00994 0 0 0
-0.204608 -0.0468679 -2.13149 0 0 0
-0.143194 -0.0449328 -2.06874 0 0 0
0.16884 -0.0292649 -1.9613 0 0 0
0.148225 -0.0324007 -1.99127 0 0 0
-1.11869 -0.182011 -3.55056 0 0 0
0.0244954 -0.0399506 -2.0034 0 0 0
-0.0149734 -0.0420769 -2.00184 0 0 0
0.253814 -0.0344055 -1.9996 0 0 0
0.17585 -0.0375264 -1.99471 0 0 0
-0.713228 -0.163599 -3.3987 0 0 0
0.362772 -0.0391978 -2.01564 0 0 0
-0.264391 -0.0775914 -2.16966 0 0 0
0.0218158 -0.0595586 -1.9979 0 0 0
0.489892 -0.058557 -2.10321 0 0 0
0.19431 -0.0548786 -1.98081 0 0 0
-0.0533867 -0.0658992 -2.0045 0 0 0
-1.1966 -0.229242 -3.5346 0 0 0
0.113227 -0.062562 -1.99228 0 0 0
0.196931 -0.0610458 -1.99356 0 0 0
0.472534 -0.0663216 -2.10992 0 0 0
0.0379077 -0.0723349 -1.99315 0 0 0
-0.0457196 -0.0796597 -1.99049 0 0 0
0.140633 -0.0718151 -1.98033 0 0 0
0.178099 -0.0702211 -1.98786 0 0 0
0.02394 -0.0758387 -1.99196 0 0 0
0.0284887 -0.0759953 -1.99635 0 0 0
0.171403 -0.0733716 -1.9878 0 0 0
0.0196165 -0.0799518 -1.99101 0 0 0
0.304789 -0.0738476 -2.01446 0 0 0
0.361617 -0.0807889 -2.01056 0 0 0
0.2823 -0.0822987 -1.9935 0 0 0
0.268561 -0.0850888 -1.99409 0 0 0
0.059385 -0.0893441 -1.98292 0 0 0
0.442761 -0.0875801 -1.97995 0 0 0
0.139675 -0.104494 -1.95548 0 0 0
0.0838712 -0.110247 -1.96684 0 0 0
0.0838712 -0.110247 -1.96684 0 0 0
-0.0129341 -0.133684 -1.99274 0 0 0
-0.543471 -0.234449 -2.75688 0 0 0
-0.678279 -0.246183 -2.82303 0 0 0
-1.08315 -0.287372 -3.0057 0 0 0
-1.09662 -0.289447 -3.06368 0 0 0
-0.895481 -0.274362 -2.91852 0 0 0
-0.750615 -0.260824 -2.85947 0 0 0
-0.830325 -0.268829 -2.9029 0 0 0
-0.829917 -0.268396 -2.8879 0 0 0
3.30061 -1.64513 -15.3971 0 0 0
-0.14696 -0.171984 -2.0702 0 0 0
-0.865297 -0.293473 -2.92533 0 0 0
-0.864766 -0.293897 -2.92033 0 0 0
0.112679 -0.159597 -1.99018 0 0 0
-0.183867 -0.188188 -2.10387 0 0 0
-0.232242 -0.208376 -2.14144 0 0 0
0.204814 -0.17667 -1.96523 0 0 0
-0.442909 -0.28068 -2.65471 0 0 0
-0.446902 -0.284668 -2.66098 0 0 0
0.320641 -0.182208 -1.993 0 0 0
0.320641 -0.182208 -1.993 0 0 0
-0.530919 -0.293776 -2.66306 0 0 0
0.10435 -0.192191 -1.98944 0 0 0
-0.0481516 -0.202365 -1.9941 0 0 0
-0.0484159 -0.202548 -1.99825 0 0 0
-0.626311 -0.32481 -2.80442 0 0 0
-0.801183 -0.340341 -2.87224 0 0 0
0.282126 -0.20037 -2.01821 0 0 0
0.282126 -0.20037 -2.01821 0 0 0
-0.599137 -0.3312 -2.80348 0 0 0
-0.792689 -0.351011 -2.87947 0 0 0
-0.908482 -0.36249 -2.91919 0 0 0
-0.20514 -0.235393 -2.10243 0 0 0
0.0982243 -0.210913 -1.99168 0 0 0
0.305817 -0.209567 -1.98522 0 0 0
-0.212012 -0.024943 -0.531006 0 0 0
-0.212012 -0.024943 -0.531006 0 0 0
-0.927912 -0.373858 -2.9258 0 0 0
-0.911566 -0.376034 -2.91722 0 0 0
-0.959744 -0.39228 -2.94337 0 0 0
0.290456 -0.227247 -2.00665 0 0 0
-0.107239 -0.24968 -2.02777 0 0 0
-0.10737 -0.249478 -2.02792 0 0 0
0.19975 -0.23107 -1.92452 0 0 0
-0.785851 -0.391297 -2.86962 0 0 0
-0.935688 -0.405376 -2.93325 0 0 0
-0.106938 -0.254104 -2.01487 0 0 0
-0.483831 -0.365704 -2.706 0 0 0
0.406456 -0.243707 -1.99979 0 0 0
0.406456 -0.243707 -1.99979 0 0 0
0.145159 -0.245151 -1.97332 0 0 0
0.262355 -0.245418 -2.00492 0 0 0
-0.817491 -0.408716 -2.87328 0 0 0
0.169614 -0.250675 -1.96398 0 0 0
0.212064 -0.252765 -1.95504 0 0 0
-0.795704 -0.423661 -2.89992 0 0 0
-0.795326 -0.422914 -2.89845 0 0 0
-0.796715 -0.424127 -2.90551 0 0 0
0.467985 -0.271216 -2.0808 0 0 0
-0.102776 -0.280211 -2.02075 0 0 0
-0.213034 -0.296077 -2.08773 0 0 0
-0.180334 -0.291845 -2.07145 0 0 0
0.197976 -0.266353 -1.96814 0 0 0
-0.218146 -0.30251 -2.10966 0 0 0
0.187276 -0.271785 -1.98647 0 0 0
0.0940241 -0.276608 -1.97423 0 0 0
-0.00834111 -0.282457 -1.98502 0 0 0
-0.16942 -0.301913 -2.07591 0 0 0
-0.0330379 -0.284467 -1.98158 0 0 0
0.355087 -0.279854 -2.0119 0 0 0
-0.697641 -0.435295 -2.80605 0 0 0
0.0240318 -0.284423 -1.97832 0 0 0
0.0248825 -0.285739 -1.9686 0 0 0
0.349633 -0.284498 -1.98276 0 0 0
-0.223977 -0.325388 -2.12506 0 0 0
-0.022865 -0.305233 -2.03405 0 0 0
0.201177 -0.289508 -1.96373 0 0 0
0.407226 -0.291748 -1.98677 0 0 0
-0.0974004 -0.307711 -2.00596 0 0 0
-0.76391 -0.476412 -2.88965 0 0 0
-0.600174 -0.460523 -2.78398 0 0 0
0.382265 -0.316 -1.98055 0 0 0
0.201159 -0.316909 -1.96893 0 0 0
0.254118 -0.336076 -1.95764 0 0 0
0.356683 -0.41598 -2.00903 0 0 0
-0.755989 -1.13832 -4.6509 0 0 0
-0.455778 0.907916 -4.78281 0 0 0
-0.42743 0.838291 -4.7285 0 0 0
-0.803405 0.703857 -4.48819 0 0 0
-0.803405 0.703857 -4.48819 0 0 0
-0.801286 0.67627 -4.47844 0 0 0
-0.556688 0.649043 -4.37499 0 0 0
0.0481066 0.612509 -4.02041 0 0 0
-0.743985 0.615111 -4.43592 0 0 0
-0.091915 0.584554 -4.08977 0 0 0
-0.551544 0.581338 -4.3569 0 0 0
-0.197954 0.557568 -4.13995 0 0 0
-0.507372 0.553434 -4.29586 0 0 0
-0.804169 0.555814 -4.47285 0 0 0
-0.183453 0.538868 -4.14221 0 0 0
-0.195936 0.539353 -4.13349 0 0 0
0.00859294 0.539513 -4.10915 0 0 0
-0.451783 0.527371 -4.28034 0 0 0
-0.47177 0.526806 -4.30392 0 0 0
-0.444068 0.52392 -4.28094 0 0 0
-0.444068 0.52392 -4.28094 0 0 0
0.0637247 0.511367 -4.00054 0 0 0
0.0529016 0.511352 -4.03796 0 0 0
-0.456976 0.50933 -4.27066 0 0 0
-0.686069 0.516024 -4.40861 0 0 0
-0.405919 0.500238 -4.24778 0 0 0
-0.703745 0.497029 -4.40741 0 0 0
-0.759919 0.460621 -4.42573 0 0 0
-0.124318 0.450181 -4.07975 0 0 0
-0.452674 0.44434 -4.2668 0 0 0
-0.472926 0.442753 -4.26752 0 0 0
0.0933949 0.430444 -3.97615 0 0 0
-0.922332 0.425361 -4.4909 0 0 0
-0.922332 0.425361 -4.4909 0 0 0
-0.484949 0.412594 -4.26751 0 0 0
-0.226684 0.397842 -4.1545 0 0 0
0.0110438 0.368322 -3.99268 0 0 0
-0.313107 0.323356 -3.51694 0 0 0
-0.101973 0.293787 -3.58595 0 0 0
-0.715743 0.275128 -3.46978 0 0 0
0.114444 0.295865 -3.71679 0 0 0
0.136895 0.292337 -3.75564 0 0 0
-0.644053 0.245406 -3.43968 0 0 0
-0.604574 0.240132 -3.45407 0 0 0
-0.565009 0.235911 -3.45346 0 0 0
-0.710011 0.230589 -3.4466 0 0 0
-0.805634 0.220526 -3.46279 0 0 0
-0.509807 0.203318 -3.44839 0 0 0
-0.862231 0.195922 -3.45419 0 0 0
-0.44668 0.203411 -3.45944 0 0 0
0.078754 0.207808 -3.681 0 0 0
0.436268 0.214287 -4.15893 0 0 0
0.0768463 0.193909 -3.66807 0 0 0
0.242099 0.175309 -3.79766 0 0 0
-0.751002 0.147544 -3.44576 0 0 0
-0.41703 0.149275 -3.46234 0 0 0
-0.58405 0.143516 -3.45594 0 0 0
-0.930751 0.132441 -3.49053 0 0 0
-1.41607 0.119633 -3.72323 0 0 0
-1.33682 0.0997338 -3.55292 0 0 0
0.00421129 0.135618 -3.60414 0 0 0
-0.161808 0.132551 -3.53885 0 0 0
-0.359378 0.128269 -3.47834 0 0 0
-0.244922 0.108294 -3.5089 0 0 0
-0.24537 0.109528 -3.52054 0 0 0
-0.431748 0.100297 -3.45602 0 0 0
-0.283332 0.10169 -3.49101 0 0 0
-0.214504 0.0985463 -3.52054 0 0 0
-1.52269 0.0625777 -3.88991 0 0 0
-1.5173 0.052669 -3.7902 0 0 0
-1.05607 0.067999 -3.53845 0 0 0
-1.21555 0.0596244 -3.62027 0 0 0
-0.312357 0.0726678 -3.47818 0 0 0
-0.396927 0.0679669 -3.45953 0 0 0
-0.169183 0.0603492 -3.52953 0 0 0
-0.072 0.057855 -3.57385 0 0 0
-1.07272 0.0244428 -3.50726 0 0 0
-1.06673 0.0248163 -3.52845 0 0 0
-0.0447735 0.039881 -3.59491 0 0 0
0.409524 0.0328382 -4.17456 0 0 0
-0.253275 0.0378912 -3.48997 0 0 0
0.474792 0.142339 -0.859909 0 0 0
-0.40415 0.0136962 -3.43509 0 0 0
-0.448563 0.0124209 -3.43705 0 0 0
-0.989225 -0.00522617 -3.48572 0 0 0
-0.970551 -0.00522263 -3.47922 0 0 0
-0.238993 0.00990564 -3.48274 0 0 0
-0.238993 0.00990564 -3.48274 0 0 0
-0.230854 0.00928413 -3.48308 0 0 0
-0.282398 0.00401524 -3.47695 0 0 0
-0.282398 0.00401524 -3.47695 0 0 0
-1.11572 -0.0176022 -3.5324 0 0 0
-0.6063 -0.00251919 -3.43083 0 0 0
-1.27864 -0.034785 -3.66647 0 0 0
-0.160915 -0.00682635 -3.49519 0 0 0
-0.80455 -0.0192901 -3.4329 0 0 0
-0.0243425 -0.00890526 -3.57949 0 0 0
-0.14731 -0.00861142 -3.5281 0 0 0
-1.28957 -0.0427752 -3.6319 0 0 0
-1.34034 -0.0458871 -3.72012 0 0 0
-0.455222 -0.0193939 -3.42476 0 0 0
-1.0337 -0.0408484 -3.48158 0 0 0
-0.273718 -0.036391 -3.44726 0 0 0
-1.11711 -0.0607365 -3.52932 0 0 0
-0.292252 -0.0697479 -3.42618 0 0 0
0.016796 -0.0719097 -3.45192 0 0 0
-0.218869 -0.0787764 -3.44918 0 0 0
-0.491222 -0.0867234 -3.41837 0 0 0
-1.08839 -0.140972 -3.5216 0 0 0
0.198688 -0.00834533 -2.00542 0 0 0
-0.664187 -0.129982 -3.4095 0 0 0
0.0272453 -0.0237933 -2.03244 0 0 0
-0.149331 -0.0349488 -2.0761 0 0 0
-0.420139 -0.137932 -3.41262 0 0 0
-0.516304 -0.143574 -3.40558 0 0 0
-0.0245324 -0.0345833 -2.00284 0 0 0
0.105182 -0.0328332 -1.99227 0 0 0
-0.057955 -0.0395183 -2.00807 0 0 0
-1.22245 -0.199684 -3.61302 0 0 0
-1.21347 -0.198116 -3.58076 0 0 0
0.156538 -0.043638 -1.99125 0 0 0
0.208282 -0.042048 -1.99579 0 0 0
-0.137449 -0.0649191 -2.06455 0 0 0
0.675064 -0.0227746 -1.77084 0 0 0
0.675988 -0.0221545 -1.77754 0 0 0
-0.231333 -0.0768756 -2.14432 0 0 0
-0.110312 -0.065043 -2.05931 0 0 0
0.678108 -0.0254171 -1.74149 0 0 0
-1.15344 -0.225918 -3.56173 0 0 0
-0.682449 -0.200043 -3.36636 0 0 0
0.523002 -0.077828 -2.13542 0 0 0
0.154534 -0.0799981 -1.98969 0 0 0
0.614816 -0.103233 -2.35085 0 0 0
0.142415 -0.106167 -1.94296 0 0 0
0.485574 -0.0163186 -0.917299 0 0 0
-0.0395684 -0.135598 -2.00337 0 0 0
0.269689 -0.131225 -2.00077 0 0 0
0.269689 -0.131225 -2.00077 0 0 0
0.37176 -0.132878 -2.03217 0 0 0
3.35134 -1.54366 -15.531 0 0 0
0.165564 -0.134771 -1.98359 0 0 0
0.443315 -0.137505 -2.06257 0 0 0
-0.0669399 -0.143496 -2.00787 0 0 0
0.239626 -0.134979 -1.98609 0 0 0
0.422033 -0.142356 -2.00059 0 0 0
-0.567666 -0.278976 -2.77059 0 0 0
0.0710302 -0.169721 -2.00058 0 0 0
0.17764 -0.167984 -1.9861 0 0 0
-0.115055 -0.186436 -2.04534 0 0 0
0.514659 -0.187395 -2.17304 0 0 0
0.184412 -0.184304 -1.97464 0 0 0
0.425306 -0.190658 -2.06663 0 0 0
-0.812588 -0.331632 -2.90577 0 0 0
-0.0570255 -0.20369 -1.99186 0 0 0
0.289875 -0.200724 -1.99482 0 0 0
0.288259 -0.199985 -1.98168 0 0 0
-0.905491 -0.357822 -2.87746 0 0 0
0.144269 -0.20887 -1.98085 0 0 0
-0.222842 -0.240301 -2.11561 0 0 0
0.20669 -0.205326 -1.89383 0 0 0
1.44802 -0.619075 -5.07904 0 0 0
-0.313688 -0.327995 -2.661 0 0 0
0.0668922 -0.22797 -1.98316 0 0 0
0.179882 -0.224516 -1.96602 0 0 0
-0.0563638 -0.234647 -1.99923 0 0 0
-0.789156 -0.386898 -2.87201 0 0 0
-0.882829 -0.405893 -2.90455 0 0 0
-0.884557 -0.405507 -2.90052 0 0 0
-0.205565 -0.279076 -2.1154 0 0 0
-0.188118 -0.275673 -2.09914 0 0 0
-0.154816 -0.277871 -2.05863 0 0 0
-0.0906795 -0.27752 -2.02182 0 0 0
0.106315 -0.267249 -1.97453 0 0 0
-0.231817 -0.307715 -2.13157 0 0 0
-0.166255 -0.297583 -2.07541 0 0 0
0.0714387 -0.277911 -1.96867 0 0 0
-0.0489921 -0.284491 -1.98776 0 0 0
-0.0478517 -0.287406 -2.01385 0 0 0
-0.759389 -0.442989 -2.83177 0 0 0
0.093044 -0.279112 -1.94304 0 0 0
-0.0324602 -0.289932 -1.98871 0 0 0
0.266504 -0.295833 -1.97383 0 0 0
0.262958 -0.322346 -1.99784 0 0 0
-0.662548 -0.490318 -2.80433 0 0 0
0.299413 -0.329551 -1.99213 0 0 0
0.402552 -0.329837 -1.96975 0 0 0
-2.99366 -2.42243 -12.4639 0 0 0
-0.44502 0.968639 -4.62665 0 0 0
-0.434551 0.919799 -4.7423 0 0 0
-0.463036 0.904711 -4.76095 0 0 0
-0.735942 0.75118 -4.36073 0 0 0
-0.89393 0.662072 -4.51685 0 0 0
-0.693803 0.65284 -4.42141 0 0 0
-0.825922 0.541871 -4.44513 0 0 0
0.096318 0.527005 -3.99109 0 0 0
-0.55699 0.513196 -4.34305 0 0 0
-0.512361 0.498045 -4.31249 0 0 0
0.187686 0.485495 -3.93653 0 0 0
0.138807 0.48491 -3.96028 0 0 0
-0.585123 0.461704 -4.36187 0 0 0
-0.603357 0.451304 -4.36464 0 0 0
0.0947514 0.388608 -4.03591 0 0 0
-0.562599 0.355471 -3.46852 0 0 0
0.0824609 0.375248 -3.95829 0 0 0
-0.584847 0.328654 -3.46485 0 0 0
-0.74525 0.28959 -4.14655 0 0 0
0.0314135 0.24884 -3.64626 0 0 0
-0.617022 0.215182 -3.45516 0 0 0
-0.689504 0.195029 -3.42786 0 0 0
-1.05143 0.176593 -3.50582 0 0 0
-0.078054 0.18974 -3.56991 0 0 0
-1.03384 0.169234 -3.4957 0 0 0
-0.255793 0.156189 -3.49928 0 0 0
-1.34826 0.124277 -3.66046 0 0 0
-0.103928 0.146592 -3.55564 0 0 0
-1.36684 0.122234 -3.74572 0 0 0
-0.597538 0.128813 -3.4545 0 0 0
-0.0180252 0.139188 -3.59197 0 0 0
0.247898 0.141123 -3.80354 0 0 0
0.247898 0.141123 -3.80354 0 0 0
-1.44948 0.101643 -3.78144 0 0 0
-0.284637 0.126668 -3.50211 0 0 0
-0.0380486 0.1202 -3.57598 0 0 0
0.113558 0.124449 -3.6685 0 0 0
0.16119 0.118562 -3.7095 0 0 0
0.0446296 0.111632 -3.61657 0 0 0
0.186848 0.115171 -3.73434 0 0 0
0.0637796 0.101531 -3.67265 0 0 0
-1.50972 0.0585722 -3.7872 0 0 0
-1.31076 0.0601055 -3.68338 0 0 0
-0.507489 0.0800649 -3.44764 0 0 0
-1.0297 0.0536468 -3.51423 0 0 0
-0.427078 0.0648398 -3.44958 0 0 0
-0.459336 0.0529426 -3.44106 0 0 0
-0.37836 0.0520669 -3.45631 0 0 0
-0.831589 0.00894778 -3.43229 0 0 0
-1.09246 -0.00771492 -3.512 0 0 0
-1.26808 -0.0215591 -3.6572 0 0 0
-0.469925 0.00162113 -3.45114 0 0 0
-0.386101 2.01048e-05 -3.45012 0 0 0
-0.633808 -0.0458942 -3.42014 0 0 0
-0.0935381 -0.0508364 -3.54822 0 0 0
-0.17751 -0.0564884 -3.48127 0 0 0
-0.0455938 -0.0569507 -3.54545 0 0 0
0.149036 -0.0649409 -3.69683 0 0 0
-0.192582 -0.0585786 -3.47511 0 0 0
-1.33971 -0.0968736 -3.69173 0 0 0
0.0246493 -0.0609211 -3.47937 0 0 0
-0.4873 -0.0980845 -3.41501 0 0 0
-0.456419 -0.103644 -3.41861 0 0 0
-1.04493 -0.138065 -3.46927 0 0 0
-0.242528 -0.0507932 -2.1568 0 0 0
0.310643 -0.0273544 -2.02182 0 0 0
-0.148612 -0.0432881 -2.08638 0 0 0
-1.3298 -0.227057 -3.68016 0 0 0
0.253603 -0.0564972 -1.98726 0 0 0
0.477003 -0.0779776 -2.12326 0 0 0
-0.208262 -0.118946 -2.11434 0 0 0
-0.522222 -0.216593 -2.76164 0 0 0
0.220663 -0.122881 -1.97819 0 0 0
-0.0697607 -0.132698 -2.0037 0 0 0
-0.465739 -0.220944 -2.73042 0 0 0
-0.0907067 -0.136771 -2.02396 0 0 0
0.323755 -0.12875 -2.01272 0 0 0
-0.065285 -0.138021 -2.00688 0 0 0
-0.0446793 -0.141793 -2.00673 0 0 0
0.0903003 -0.136965 -1.98795 0 0 0
0.116974 -0.135978 -1.98451 0 0 0
0.0602963 -0.138513 -1.99068 0 0 0
-0.634001 -0.2466 -2.81211 0 0 0
-0.250249 -0.169639 -2.24964 0 0 0
-0.733627 -0.254695 -2.84109 0 0 0
0.476114 -0.145442 -2.10387 0 0 0
0.31987 -0.151875 -2.04876 0 0 0
0.0801204 -0.181352 -1.97341 0 0 0
-0.811229 -0.321283 -2.88323 0 0 0
-0.778767 -0.34511 -2.87472 0 0 0
0.135429 -0.212214 -1.98307 0 0 0
-0.204573 -0.240039 -2.0988 0 0 0
-0.205592 -0.243313 -2.12229 0 0 0
0.135977 -0.222668 -1.99393 0 0 0
-0.31956 -0.334174 -2.67043 0 0 0
-0.688838 -0.389639 -2.80871 0 0 0
-0.68846 -0.388962 -2.82597 0 0 0
-0.221035 -0.282045 -2.13992 0 0 0
-0.773167 -0.41612 -2.88331 0 0 0
0.572704 -0.281285 -2.22727 0 0 0
0.419934 -0.267138 -2.05868 0 0 0
-0.0819376 -0.277202 -2.00188 0 0 0
0.0430806 -0.2776 -1.98126 0 0 0
-0.17575 -0.300237 -2.07971 0 0 0
-0.629058 -0.42463 -2.78188 0 0 0
0.0769248 -0.27965 -1.96997 0 0 0
-0.152809 -0.302515 -2.05064 0 0 0
0.129137 -0.287971 -2.01985 0 0 0
-0.754664 -0.448655 -2.8316 0 0 0
0.403568 -0.287494 -1.9809 0 0 0
0.205614 -0.287986 -1.96528 0 0 0
-0.773247 -0.477627 -2.90578 0 0 0
0.289248 -0.303911 -1.9785 0 0 0
0.266501 -0.304565 -1.96449 0 0 0
0.269708 -0.306538 -2.0007 0 0 0
0.397755 -0.310372 -2.00764 0 0 0
0.260021 -0.309451 -1.9761 0 0 0
0.340076 -0.324984 -2.01319 0 0 0
0.178359 -0.253532 -1.47038 0 0 0
-0.381489 -1.20451 -4.54642 0 0 0
-0.602596 0.622797 -4.43015 0 0 0
-0.0418838 0.537004 -4.0737 0 0 0
-0.727835 0.523095 -4.42506 0 0 0
-0.497719 0.472403 -4.2897 0 0 0
-0.497025 0.472631 -4.28331 0 0 0
-0.112911 0.452694 -4.0828 0 0 0
-0.62712 0.45783 -4.3743 0 0 0
-0.315319 0.43874 -4.24065 0 0 0
-0.312891 0.439538 -4.23199 0 0 0
-0.681684 0.430565 -4.39458 0 0 0
-0.681684 0.430565 -4.39458 0 0 0
0.125623 0.385452 -3.91634 0 0 0
0.126436 0.386527 -3.91756 0 0 0
-0.697956 0.262394 -3.45463 0 0 0
0.438132 0.242102 -4.20177 0 0 0
-0.590029 0.195356 -3.45172 0 0 0
-0.70974 0.186761 -3.44404 0 0 0
0.520719 0.208832 -4.42813 0 0 0
-0.161256 0.164473 -3.5267 0 0 0
-0.131049 0.163218 -3.53904 0 0 0
-0.281057 0.149488 -3.49501 0 0 0
-0.281435 0.1496 -3.49391 0 0 0
-0.806062 0.126559 -3.4821 0 0 0
-0.371221 0.139991 -3.47249 0 0 0
-0.691478 0.119462 -3.46924 0 0 0
-1.27713 0.10207 -3.65897 0 0 0
0.164227 0.131269 -3.71267 0 0 0
0.191097 0.129911 -3.73636 0 0 0
0.191097 0.129911 -3.73636 0 0 0
0.284424 0.132044 -3.85513 0 0 0
-1.37223 0.0327222 -3.71997 0 0 0
-0.802515 0.0420303 -3.4586 0 0 0
-0.69706 0.0339085 -3.44683 0 0 0
-1.08667 -0.0533894 -3.53973 0 0 0
-0.701187 -0.0577028 -3.42742 0 0 0
-0.0751007 -0.0542635 -3.48498 0 0 0
-0.261868 -0.068425 -3.42441 0 0 0
-0.010936 -0.0764878 -3.58027 0 0 0
-0.909902 -0.08412 -3.43962 0 0 0
-0.331441 -0.101343 -3.41799 0 0 0
-0.500839 -0.143805 -3.39789 0 0 0
0.298301 -0.0568529 -2.00884 0 0 0
-0.834862 -0.208429 -3.40833 0 0 0
0.104719 -0.0610269 -1.98013 0 0 0
0.147922 -0.106124 -1.98386 0 0 0
0.0147339 -0.117574 -1.99495 0 0 0
0.275944 -0.113639 -1.99194 0 0 0
-0.136644 -0.132786 -2.05772 0 0 0
0.0682174 -0.122025 -1.9791 0 0 0
0.202968 -0.117255 -1.96487 0 0 0
0.173318 -0.118822 -1.96517 0 0 0
-0.92958 -0.25862 -2.9754 0 0 0
-0.5851 -0.235287 -2.78781 0 0 0
-0.642873 -0.245929 -2.81624 0 0 0
0.461332 -0.146361 -2.08713 0 0 0
-1.11784 -0.293806 -3.06773 0 0 0
-0.780568 -0.269999 -2.87307 0 0 0
-0.426082 -0.25423 -2.70904 0 0 0
0.175149 -0.172704 -1.98413 0 0 0
0.177727 -0.171345 -1.9944 0 0 0
0.0196065 -0.190981 -2.01896 0 0 0
-0.359363 -0.296625 -2.68537 0 0 0
0.453097 -0.20588 -2.08198 0 0 0
-0.360891 -0.307069 -2.67267 0 0 0
1.5553 -0.585834 -5.09156 0 0 0
-0.88128 -0.365077 -2.90673 0 0 0
1.46945 -0.611758 -5.07693 0 0 0
-0.963672 -0.38778 -2.9503 0 0 0
0.129539 -0.232354 -1.98717 0 0 0
-0.105891 -0.284962 -2.01836 0 0 0
-0.135627 -0.296501 -2.01285 0 0 0
0.434951 -0.282837 -2.0225 0 0 0
0.293079 -0.295977 -1.99587 0 0 0
-0.607588 0.740482 -4.46309 0 0 0
-0.785795 0.692149 -4.46663 0 0 0
-0.209134 0.540088 -4.13318 0 0 0
-0.868113 0.494523 -4.49843 0 0 0
-0.735692 0.485741 -4.42574 0 0 0
-0.696817 0.458914 -4.40624 0 0 0
0.309548 0.417601 -3.98381 0 0 0
0.117021 0.377115 -3.95233 0 0 0
-0.562498 0.326786 -3.46753 0 0 0
-0.32569 0.32309 -3.52131 0 0 0
-0.488779 0.314721 -3.44282 0 0 0
-0.187632 0.256183 -3.52923 0 0 0
0.127959 0.262414 -3.7158 0 0 0
-0.382492 0.188913 -3.46197 0 0 0
-0.224859 0.169035 -3.50621 0 0 0
-0.013224 0.166651 -3.64292 0 0 0
0.0399696 0.164234 -3.62283 0 0 0
0.0415954 0.164266 -3.64893 0 0 0
-0.102868 0.161058 -3.55286 0 0 0
-0.102868 0.161058 -3.55286 0 0 0
0.0249491 0.159016 -3.61289 0 0 0
0.0244608 0.159108 -3.61331 0 0 0
0.510572 0.158858 -4.35933 0 0 0
0.0776333 0.152083 -3.64049 0 0 0
0.0380058 0.147919 -3.61919 0 0 0
0.0380058 0.147919 -3.61919 0 0 0
0.103566 0.148951 -3.6597 0 0 0
-0.274596 0.142354 -3.5197 0 0 0
0.0646568 0.144928 -3.63349 0 0 0
0.129323 0.146153 -3.67982 0 0 0
0.168572 0.147796 -3.7113 0 0 0
0.155812 0.143405 -3.717 0 0 0
0.116283 0.138549 -3.66937 0 0 0
0.177658 0.138914 -3.72632 0 0 0
0.140535 0.135327 -3.68952 0 0 0
0.140535 0.135327 -3.68952 0 0 0
0.125728 0.129209 -3.68794 0 0 0
0.125728 0.129209 -3.68794 0 0 0
-0.480689 0.0764942 -3.45592 0 0 0
-0.35105 0.0134791 -3.47119 0 0 0
0.390675 -0.0642952 -4.17647 0 0 0
-0.722244 -0.0627251 -3.41226 0 0 0
-0.2282 -0.069518 -3.43718 0 0 0
-0.662662 -0.0981788 -3.39985 0 0 0
-0.039462 -0.0167891 -2.01224 0 0 0
0.415304 -0.0205058 -2.08863 0 0 0
-0.87903 -0.166657 -3.39595 0 0 0
-0.88381 -0.167285 -3.40947 0 0 0
0.188583 -0.0515869 -1.98289 0 0 0
-1.04157 -0.210367 -3.46882 0 0 0
0.291389 -0.060771 -2.00872 0 0 0
-0.0770217 -0.0948169 -1.99665 0 0 0
-0.199856 -0.115916 -2.10611 0 0 0
0.467865 -0.0998424 -2.06944 0 0 0
0.278249 -0.0995499 -1.99157 0 0 0
-0.250489 -0.131875 -2.15318 0 0 0
-0.646859 -0.206884 -2.81578 0 0 0
-0.14067 -0.119489 -2.0558 0 0 0
0.204286 -0.104698 -1.96785 0 0 0
0.0869589 -0.114745 -1.97647 0 0 0
0.167375 -0.111515 -1.97289 0 0 0
-0.0953076 -0.122329 -2.21107 0 0 0
0.430369 -0.119754 -2.04935 0 0 0
0.454555 -0.120381 -2.08964 0 0 0
0.254495 -0.11969 -1.98514 0 0 0
0.489289 -0.1279 -2.10158 0 0 0
0.30539 -0.126224 -2.0104 0 0 0
0.30539 -0.126224 -2.0104 0 0 0
0.426539 -0.132503 -2.05314 0 0 0
0.43793 -0.136684 -2.06257 0 0 0
0.465376 -0.136567 -2.08133 0 0 0
-0.601205 -0.24515 -2.81676 0 0 0
-0.042294 -0.157324 -2.00183 0 0 0
0.412578 -0.173352 -2.07219 0 0 0
-0.597 -0.299883 -2.77711 0 0 0
-0.596248 -0.313131 -2.77218 0 0 0
-0.756234 -0.329372 -2.85194 0 0 0
-0.584926 -0.324383 -2.77462 0 0 0
-0.816935 -0.357001 -2.90071 0 0 0
0.209177 -0.210484 -1.96515 0 0 0
-0.326788 0.0178064 -0.110936 0 0 0
0.229285 -0.270088 -1.95436 0 0 0
0.430135 -0.280913 -2.05137 0 0 0
0.389598 -0.298712 -2.03142 0 0 0
0.444805 -0.305583 -2.04382 0 0 0
-0.402626 0.743342 -4.60585 0 0 0
-0.0726368 0.600695 -4.09452 0 0 0
-0.0438845 0.476333 -4.06454 0 0 0
-0.697151 0.454433 -4.43852 0 0 0
0.191508 0.393235 -3.88572 0 0 0
0.10018 0.379431 -3.95774 0 0 0
-0.422098 0.258254 -3.48017 0 0 0
0.101424 0.27118 -3.6973 0 0 0
-0.661466 0.181397 -3.43837 0 0 0
-0.272687 0.177393 -3.49528 0 0 0
-0.272503 0.177459 -3.49478 0 0 0
-1.08332 0.161119 -3.52678 0 0 0
-0.179734 0.173713 -3.53055 0 0 0
-0.148708 0.171483 -3.53934 0 0 0
-0.118514 0.169117 -3.55194 0 0 0
-0.0883775 0.167012 -3.56462 0 0 0
-0.0883775 0.167012 -3.56462 0 0 0
-0.0308194 0.162613 -3.58891 0 0 0
-0.245053 0.157308 -3.50355 0 0 0
-0.245053 0.157308 -3.50355 0 0 0
-0.0630437 0.147075 -3.5759 0 0 0
-0.0630437 0.147075 -3.5759 0 0 0
0.0206001 0.138698 -3.61398 0 0 0
0.16805 0.108694 -3.71713 0 0 0
-1.45076 -0.00295622 -3.76477 0 0 0
-1.01432 -0.062587 -3.46867 0 0 0
-0.201824 -0.044728 -2.11498 0 0 0
0.58201 -0.0410175 -2.25296 0 0 0
0.188748 -0.0486599 -1.98119 0 0 0
-0.0950452 -0.0604674 -2.01552 0 0 0
0.532458 -0.0647474 -2.13213 0 0 0
0.381575 -0.0611449 -2.03536 0 0 0
-0.0877353 -0.0965489 -2.00584 0 0 0
0.2381 -0.0899378 -2.00011 0 0 0
0.236271 -0.0895563 -1.97839 0 0 0
0.261798 -0.0904879 -1.98952 0 0 0
0.261798 -0.0904879 -1.98952 0 0 0
0.287645 -0.0912967 -1.99699 0 0 0
0.311611 -0.0929919 -2.00264 0 0 0
0.311611 -0.0929919 -2.00264 0 0 0
0.33573 -0.0953671 -2.01047 0 0 0
0.361453 -0.0976489 -2.02466 0 0 0
0.223142 -0.0952615 -1.96523 0 0 0
0.247997 -0.0971569 -1.97741 0 0 0
0.25113 -0.0983704 -2.00895 0 0 0
-0.713802 -0.217392 -2.85647 0 0 0
0.234591 -0.10755 -1.9903 0 0 0
0.234591 -0.10755 -1.9903 0 0 0
0.296634 -0.11587 -2.00418 0 0 0
0.345225 -0.117922 -2.01899 0 0 0
0.417581 -0.122678 -2.0482 0 0 0
0.442197 -0.124436 -2.05765 0 0 0
-0.819754 -0.296643 -2.91215 0 0 0
-0.557385 -0.279498 -2.76491 0 0 0
-0.593585 -0.286174 -2.80477 0 0 0
-0.953257 -0.330414 -2.96556 0 0 0
-0.743096 0.755385 -4.47031 0 0 0
-0.0549627 0.584107 -4.07327 0 0 0
-0.48423 0.425855 -4.25313 0 0 0
-0.321643 0.34882 -3.50637 0 0 0
0.360398 0.35212 -3.97321 0 0 0
-0.562575 0.2035 -3.44775 0 0 0
0.103013 0.0935694 -3.69474 0 0 0
-0.337303 -0.050239 -3.43992 0 0 0
-0.652411 -0.134865 -3.39722 0 0 0
-0.652893 -0.1346 -3.39375 0 0 0
-0.870074 -0.186072 -3.44733 0 0 0
-0.158561 -0.067214 -2.07948 0 0 0
0.124827 -0.0912667 -1.98339 0 0 0
0.209645 -0.0891088 -1.97996 0 0 0
0.298183 -0.100877 -1.99871 0 0 0
0.298183 -0.100877 -1.99871 0 0 0
0.321993 -0.104008 -2.00598 0 0 0
0.346694 -0.105697 -2.01613 0 0 0
0.346694 -0.105697 -2.01613 0 0 0
0.420156 -0.108366 -2.03998 0 0 0
0.193857 -0.178862 -1.97504 0 0 0
0.0768879 0.383273 -3.97451 0 0 0
-0.20142 0.274943 -3.49794 0 0 0
-0.448163 -0.139066 -3.40677 0 0 0
-0.71271 -0.185046 -3.3811 0 0 0
0.182865 -0.0941088 -1.99877 0 0 0
0.228301 -0.145845 -1.98227 0 0 0
-0.817383 -0.379494 -3.02436 0 0 0
-0.750989 0.685153 -4.43287 0 0 0
0.187878 0.474134 -3.98245 0 0 0
0.322014 0.356761 -3.91367 0 0 0
0.46187 0.157994 -0.781799 0 0 0
-0.860587 -0.0588985 -3.39593 0 0 0
0.349961 -0.011787 -2.05868 0 0 0
-1.03019 -0.257351 -2.98607 0 0 0
-0.601956 -0.374261 -2.8941 0 0 0
-0.0684294 -0.244839 -2.00511 0 0 0
-0.131942 -0.272685 -2.05926 0 0 0
-0.715818 0.712561 -4.4812 0 0 0
0.117436 0.180496 -3.79014 0 0 0
-0.765947 0.113768 -3.46733 0 0 0
0.262281 0.0974998 -3.85333 0 0 0
-0.429433 0.837353 -4.6151 0 0 0
