ply
format ascii 1.0
element vertex 1497
property float x
property float y
property float z
property uchar red
property uchar green
property uchar blue
element face 0
property list uchar int vertex_indices
end_header
-2.01365 6.47763 -1.08741 0 0 0
-6.44099 6.62127 -3.75762 0 0 0
-1.94644 6.52127 -1.23252 0 0 0
-2.04027 6.69297 -1.16708 0 0 0
-5.91975 12.312 1.69701 0 0 0
-2.00278 6.747 -1.26978 0 0 0
-0.568202 5.87819 -1.69916 0 0 0
-2.79773 4.51056 0.0721853 0 0 0
-3.10925 3.64369 -0.267817 0 0 0
-4.74259 3.47997 -2.04088 0 0 0
-7.01774 7.33049 -3.68102 0 0 0
-4.66527 1.24668 -3.2732 0 0 0
-5.31241 1.58852 -1.33383 0 0 0
-5.00291 0.959947 -1.57365 0 0 0
-9.64642 10.3476 -2.55678 0 0 0
-4.81139 1.86872 -1.75637 0 0 0
-4.71358 1.58897 -2.11886 0 0 0
-5.04796 2.07563 -2.10167 0 0 0
1.0667 6.74645 -3.71661 0 0 0
-1.81665 4.75951 -1.55963 0 0 0
-1.87043 6.29802 -1.10856 0 0 0
-1.92097 6.11398 -1.20531 0 0 0
-3.10131 4.83504 0.316988 0 0 0
-5.32726 1.89439 -0.00183055 0 0 0
-6.96836 7.34576 -2.84078 0 0 0
-4.81593 1.49311 -3.30781 0 0 0
-2.86641 4.59272 -0.141873 0 0 0
-6.87739 7.43145 0.4741 0 0 0
-3.02772 4.69476 0.195732 0 0 0
-0.106768 3.24329 -0.733313 0 0 0
-2.52503 5.86767 -1.65131 0 0 0
-7.92951 6.15797 0.809656 0 0 0
-10.4519 7.26163 -0.0251891 0 0 0
-6.69497 6.75899 0.672815 0 0 0
-2.41565 5.83908 -1.81002 0 0 0
-8.10858 7.14038 0.106985 0 0 0
-1.93021 6.67105 -1.45901 0 0 0
-1.66042 6.29496 -1.28374 0 0 0
-6.38892 1.46466 -0.935098 0 0 0
-2.33027 6.14945 -2.50338 0 0 0
-5.5579 1.76543 -1.09817 0 0 0
-5.57788 1.7991 -0.781151 0 0 0
-5.0408 1.12668 -1.60423 0 0 0
-5.52523 1.83408 -1.4858 0 0 0
-4.88258 3.04851 -1.54186 0 0 0
-6.96193 8.47346 -1.36389 0 0 0
-5.01315 2.08466 -2.38284 0 0 0
-4.54287 1.80819 -3.27864 0 0 0
-3.19898 7.17175 -1.3267 0 0 0
-0.718599 4.34036 -1.94674 0 0 0
2.0142 4.01837 -2.25424 0 0 0
-1.83214 4.65746 -1.58221 0 0 0
0.747369 1.95723 -1.30961 0 0 0
-1.90901 4.78921 -1.57679 0 0 0
-3.18691 5.30681 -3.06078 0 0 0
0.312198 3.29763 -2.60465 0 0 0
-2.48858 5.76173 -1.64751 0 0 0
-4.01428 12.9381 -0.636418 0 0 0
-1.72716 6.27901 -1.23672 0 0 0
-3.41507 9.27232 -1.80373 0 0 0
-1.84784 6.58995 -1.3197 0 0 0
-1.94409 6.75995 -1.48853 0 0 0
-4.87941 8.79816 1.17991 0 0 0
-1.96097 6.77958 -1.34287 0 0 0
-2.2054 7.00955 -1.60394 0 0 0
-2.21058 3.64245 -0.217727 0 0 0
-1.77951 6.15317 -1.15203 0 0 0
-2.9964 4.8027 0.256632 0 0 0
-7.9993 5.93725 -1.18804 0 0 0
-3.45668 2.42688 -1.07066 0 0 0
-2.02656 6.70785 -1.5828 0 0 0
-3.32209 2.42439 -1.21761 0 0 0
-1.30988 10.8005 -3.74865 0 0 0
-7.70196 8.63443 -0.451935 0 0 0
-5.34395 3.981 -1.47189 0 0 0
-1.0656 4.86175 -1.09888 0 0 0
-7.73043 8.26549 -1.07546 0 0 0
-5.66056 1.01699 -1.41469 0 0 0
-7.51976 7.31262 0.512061 0 0 0
-2.38653 3.89115 -0.227414 0 0 0
-2.46043 7.50781 -2.6926 0 0 0
-5.10279 5.82453 0.649208 0 0 0
-9.67644 9.06034 0.463128 0 0 0
-8.95392 8.71099 0.634848 0 0 0
-6.1074 3.27003 -1.13587 0 0 0
-3.8426 6.07771 0.849951 0 0 0
-3.34673 2.39959 -1.27646 0 0 0
-4.79417 1.67882 -1.95293 0 0 0
-4.80807 1.68011 -2.10872 0 0 0
-2.19793 7.2148 -1.50281 0 0 0
-4.5572 0.870361 -1.85346 0 0 0
-5.15733 2.0503 -2.71361 0 0 0
0.145648 2.58282 0.115683 0 0 0
-0.994284 4.73843 -1.10498 0 0 0
-1.26124 5.22476 -1.28749 0 0 0
0.500587 3.14983 -1.76017 0 0 0
-1.74953 6.04916 -1.27444 0 0 0
-2.57843 12.9588 -2.73304 0 0 0
-2.96144 12.712 -2.67364 0 0 0
-8.06211 7.63504 -0.253788 0 0 0
-2.4882 7.76971 -2.24282 0 0 0
-2.429 3.93602 -0.221423 0 0 0
-1.81466 3.35928 -0.998438 0 0 0
-5.48043 4.19819 -2.08136 0 0 0
-1.06117 4.83872 -1.11343 0 0 0
-1.01874 5.11469 -1.31328 0 0 0
-1.56907 6.13089 -1.42937 0 0 0
-0.997125 5.04845 -1.22715 0 0 0
-0.771873 4.36045 -1.4225 0 0 0
-1.65268 3.46753 -1.13843 0 0 0
-1.69038 6.23991 -1.43141 0 0 0
-0.498754 9.24181 -3.66732 0 0 0
-2.78143 1.91588 -3.46786 0 0 0
-1.61234 3.40041 -1.51645 0 0 0
-2.50384 5.83614 -2.6379 0 0 0
2.05904 7.90312 -0.912633 0 0 0
-0.452302 3.51803 0.253443 0 0 0
-1.54438 6.17881 -1.59348 0 0 0
0.162656 3.61938 -1.74261 0 0 0
-3.49164 1.71334 -0.0036115 0 0 0
-4.07899 2.6818 0.424426 0 0 0
-5.30073 1.93224 0.471638 0 0 0
-5.56061 3.39393 -0.489087 0 0 0
-3.81527 4.14009 0.411821 0 0 0
-0.212975 8.94824 -3.72187 0 0 0
-3.7637 4.04864 -0.135863 0 0 0
-3.04063 1.77017 -0.692381 0 0 0
-3.06394 1.80656 -0.701358 0 0 0
-6.36739 10.4049 -1.25592 0 0 0
-1.61229 3.39631 -1.15879 0 0 0
-2.55764 6.17285 -2.77956 0 0 0
2.04933 7.8913 -0.730919 0 0 0
1.79388 8.36953 -1.63372 0 0 0
-1.84682 5.55377 -2.22679 0 0 0
-4.81666 6.75956 -4.07504 0 0 0
-3.68646 4.22898 0.424827 0 0 0
-4.98543 2.83176 -1.71807 0 0 0
-0.688293 3.51088 -1.2144 0 0 0
-3.06748 13.4941 -1.61867 0 0 0
-3.35697 2.49165 -2.47085 0 0 0
-2.00442 3.05978 -1.31819 0 0 0
-0.837415 4.34965 -1.7548 0 0 0
-3.09996 4.83992 0.317557 0 0 0
-4.67621 2.79544 -1.64768 0 0 0
-3.15563 6.25031 -2.52287 0 0 0
-2.90358 4.45607 0.291688 0 0 0
-0.736586 4.5369 -1.58125 0 0 0
-3.42529 1.13597 -0.478082 0 0 0
-4.43948 3.66486 0.174611 0 0 0
0.260713 3.03757 -0.925943 0 0 0
-1.70149 6.13118 -1.43785 0 0 0
-4.24608 6.62162 -2.93628 0 0 0
-4.42734 6.40871 1.02611 0 0 0
-0.629632 3.52728 -1.18327 0 0 0
0.15707 2.70157 -1.59386 0 0 0
-0.0143058 3.06346 -0.710546 0 0 0
-3.76949 0.808346 -2.9132 0 0 0
-0.71024 3.56796 -1.18283 0 0 0
-1.62334 6.26517 -1.91846 0 0 0
-1.6085 3.40465 -1.77822 0 0 0
-5.32469 1.88039 -0.00411349 0 0 0
-4.48777 3.68173 0.387806 0 0 0
-3.9735 3.88245 0.240616 0 0 0
-8.15803 6.90289 -0.528776 0 0 0
-6.67836 7.52718 0.422844 0 0 0
-1.57485 3.08223 -1.01243 0 0 0
-0.643764 7.03378 -1.66889 0 0 0
-0.697474 3.56592 -1.10827 0 0 0
-1.66724 3.45154 -1.4834 0 0 0
-1.77919 3.3894 -1.34444 0 0 0
-1.70296 3.43172 -1.61777 0 0 0
-4.85024 1.82686 -2.72613 0 0 0
-5.30978 4.99874 -2.42295 0 0 0
-0.043839 3.33556 -1.21413 0 0 0
-3.32009 6.54194 -2.50033 0 0 0
-1.91221 6.04138 -1.3284 0 0 0
-0.848478 4.4357 -1.7365 0 0 0
-0.764109 4.49656 -1.45732 0 0 0
-1.66458 5.97511 -2.2442 0 0 0
-1.10657 5.16868 -1.27398 0 0 0
-1.56482 5.42946 -2.36759 0 0 0
-2.46242 5.92082 -3.13344 0 0 0
-3.69508 3.10334 -3.1965 0 0 0
-9.78253 8.89144 0.595978 0 0 0
-3.30403 2.43702 -1.28951 0 0 0
-1.03278 5.00518 -1.57788 0 0 0
-0.42223 12.6113 -3.71509 0 0 0
-3.4041 2.46975 -1.31205 0 0 0
-1.87249 6.18623 -1.19739 0 0 0
-3.84913 3.27214 -3.57845 0 0 0
-0.914783 4.39481 -1.85927 0 0 0
-0.161257 3.48077 -0.369583 0 0 0
-0.126824 3.1536 -0.725211 0 0 0
-4.05683 2.46245 0.591187 0 0 0
-0.995165 5.19714 -1.96468 0 0 0
-2.63879 7.52149 -1.0622 0 0 0
-0.158153 3.47448 -0.480322 0 0 0
-0.820968 4.72313 -1.2582 0 0 0
-0.746 8.82636 -1.9059 0 0 0
-0.148415 3.586 -0.348545 0 0 0
-1.83054 -0.350471 -3.58584 0 0 0
-2.52153 5.93017 -1.60658 0 0 0
-2.8061 12.7909 -2.53518 0 0 0
-7.4751 6.07495 0.750637 0 0 0
-0.449544 3.80122 -1.64536 0 0 0
-4.0209 6.90746 -3.06926 0 0 0
-6.25092 8.15858 0.640743 0 0 0
-1.00989 5.24928 -1.95312 0 0 0
-0.0846796 3.3332 -1.41618 0 0 0
-2.22583 3.58153 -0.231744 0 0 0
-5.54659 3.37304 -0.507573 0 0 0
-4.59761 7.35396 -2.7107 0 0 0
-3.17898 3.03943 -0.207925 0 0 0
-7.57625 6.73935 0.806856 0 0 0
-8.69113 7.49844 0.206139 0 0 0
-7.96005 6.36269 -0.115571 0 0 0
-8.64128 7.5733 0.68414 0 0 0
-7.04709 11.0623 -0.787799 0 0 0
-7.25317 7.36284 0.158128 0 0 0
-0.253203 3.60179 -1.24216 0 0 0
-8.00443 7.61363 -0.2466 0 0 0
-0.154365 3.47988 -0.438125 0 0 0
-0.16748 3.47165 -0.622338 0 0 0
-0.158794 3.48013 -0.576391 0 0 0
-0.15667 3.47605 -0.425211 0 0 0
-0.300752 3.5522 -0.52309 0 0 0
-3.20292 1.77383 -1.0334 0 0 0
-0.0251808 3.54666 -0.922663 0 0 0
-0.265579 3.58809 -0.767578 0 0 0
-0.729791 3.54757 -1.31233 0 0 0
-3.3496 2.41012 -2.09193 0 0 0
-4.24424 3.58034 -2.50537 0 0 0
-5.1287 4.29567 -2.82707 0 0 0
-2.95401 11.3995 -2.41618 0 0 0
-1.64914 5.98849 -1.56785 0 0 0
-2.36343 6.23046 -2.08445 0 0 0
-2.49471 5.99 -1.93106 0 0 0
1.29088 10.7789 -3.69534 0 0 0
-0.0720886 3.28885 -1.16382 0 0 0
-0.435767 3.75882 -1.60746 0 0 0
-7.15304 6.4014 -1.98538 0 0 0
-0.279332 3.59176 -1.62089 0 0 0
-2.12062 3.27519 -3.12841 0 0 0
-2.01379 6.73928 -1.79372 0 0 0
-0.443119 3.88559 -1.59922 0 0 0
1.63648 8.75823 -1.08865 0 0 0
-0.800317 4.70591 -1.92208 0 0 0
-1.5582 6.09076 -2.19955 0 0 0
-0.794794 4.35392 -1.12826 0 0 0
-2.87391 4.07552 -3.16945 0 0 0
0.236215 3.05654 -0.882454 0 0 0
-8.47216 7.40017 -0.301878 0 0 0
2.09529 7.83137 -1.0694 0 0 0
-2.55588 4.26184 -3.16086 0 0 0
-7.2638 11.7532 -1.48365 0 0 0
0.274258 3.12855 -1.45969 0 0 0
-2.27836 7.01677 -1.25569 0 0 0
-2.02364 4.20192 -2.91189 0 0 0
0.0990946 3.12411 -1.245 0 0 0
-0.0391256 3.53094 -0.871569 0 0 0
-0.000726811 3.07962 -0.750183 0 0 0
0.127721 2.97399 -0.590363 0 0 0
-0.101102 3.30469 -1.49833 0 0 0
0.0441732 6.71688 -1.67024 0 0 0
-0.0159708 3.51246 -0.958946 0 0 0
2.39471 7.30211 -1.06252 0 0 0
-0.500985 3.80855 -1.53208 0 0 0
-6.53499 10.7681 -1.92304 0 0 0
-0.480814 3.87607 -1.5047 0 0 0
0.0804709 2.91983 -0.542134 0 0 0
-2.59663 7.84153 -3.11344 0 0 0
0.247583 3.07367 -0.933922 0 0 0
-1.1485 5.24371 -1.33604 0 0 0
-0.403868 3.57861 -1.59887 0 0 0
-5.22242 4.29615 -3.06561 0 0 0
-0.150013 3.17152 -1.23665 0 0 0
-4.93908 8.62303 1.1989 0 0 0
-5.59588 2.18896 -0.482253 0 0 0
-7.31122 7.24111 0.495203 0 0 0
0.110308 2.95457 -0.463493 0 0 0
0.0492951 3.06022 -0.428094 0 0 0
-2.53344 7.57576 -3.00463 0 0 0
0.0378491 3.05152 -0.378718 0 0 0
0.125138 2.97262 -0.669779 0 0 0
-7.77597 14.9191 -1.76652 0 0 0
-0.124156 3.14893 -0.597004 0 0 0
-0.0822004 3.08003 -0.754478 0 0 0
0.72197 6.81547 -1.70545 0 0 0
-0.0881856 3.26631 -0.5533 0 0 0
0.6252 6.81644 -1.70277 0 0 0
-0.11267 3.15668 -1.19607 0 0 0
0.201449 11.4762 -3.68843 0 0 0
-3.10385 4.01513 -2.96068 0 0 0
-3.98975 8.2313 -1.36 0 0 0
-0.762496 4.35294 -1.236 0 0 0
-5.32811 4.65629 -2.40145 0 0 0
-2.90204 4.1003 -2.50697 0 0 0
-4.42449 6.7179 0.966735 0 0 0
-1.15834 5.28815 -1.58656 0 0 0
-3.96163 6.8617 -3.15641 0 0 0
-2.34377 -0.657698 -3.50154 0 0 0
0.0833098 3.24265 -1.34643 0 0 0
-0.0022627 3.64967 -1.49649 0 0 0
-4.21222 10.1534 1.21964 0 0 0
-2.48058 4.37127 -3.0964 0 0 0
-3.99511 13.8418 0.705244 0 0 0
-0.75657 4.34916 -1.65944 0 0 0
-0.762109 4.31553 -1.6076 0 0 0
-1.46391 4.39813 -2.56793 0 0 0
-3.26228 4.49574 -3.88991 0 0 0
-2.62748 4.35711 -3.06945 0 0 0
-1.36033 4.96222 -2.12934 0 0 0
-0.80982 4.49957 -1.62609 0 0 0
0.447588 11.1704 -2.64989 0 0 0
-1.06537 5.04853 -2.2813 0 0 0
-0.807588 4.49982 -1.8182 0 0 0
-0.827027 4.71267 -1.82981 0 0 0
-1.24364 4.92731 -2.17189 0 0 0
-0.777421 4.56656 -1.78733 0 0 0
-1.74862 10.4222 -2.44521 0 0 0
-3.83472 9.44754 -1.17512 0 0 0
0.28782 3.01539 -0.945169 0 0 0
0.195626 2.7267 -1.19481 0 0 0
-4.85143 11.3147 -2.86023 0 0 0
-0.0300351 11.9658 -3.71219 0 0 0
-0.745349 4.37715 -1.88145 0 0 0
0.372475 2.56809 -1.28766 0 0 0
1.67444 8.71077 -3.42545 0 0 0
0.286706 3.10335 -1.45717 0 0 0
-3.71563 8.40665 -1.78304 0 0 0
-1.70725 10.5705 -2.42166 0 0 0
-9.71444 7.24876 -1.98124 0 0 0
0.212762 2.785 -1.14621 0 0 0
-6.50769 9.33735 -0.197128 0 0 0
-0.772487 4.65445 -1.3658 0 0 0
0.205931 2.64792 -1.22987 0 0 0
0.384364 2.76177 -1.34632 0 0 0
-0.805403 4.46554 -1.47509 0 0 0
-5.76287 5.09932 -2.88486 0 0 0
0.472207 6.64791 -1.66989 0 0 0
1.67759 8.68078 -3.62355 0 0 0
-2.72473 4.06503 -3.33772 0 0 0
-2.16894 7.21005 -1.76101 0 0 0
0.376621 11.5484 -3.50792 0 0 0
0.0954917 3.29711 -1.33073 0 0 0
0.562356 7.5515 -1.67532 0 0 0
-8.21662 5.96026 -0.698368 0 0 0
-7.98111 9.15764 -1.73697 0 0 0
2.42039 7.24751 -1.63843 0 0 0
0.276992 2.56851 -0.770824 0 0 0
-5.71552 9.82415 -0.225356 0 0 0
-1.61814 9.75124 -3.44677 0 0 0
0.0241232 3.58705 -1.50633 0 0 0
-1.23351 11.16 -3.73402 0 0 0
1.63888 10.6174 -2.93676 0 0 0
0.0313652 3.57353 -1.63456 0 0 0
-0.657999 9.70833 -3.8406 0 0 0
-1.03687 4.9594 -2.24086 0 0 0
-3.1295 8.92785 -2.25284 0 0 0
-2.5116 6.12578 -2.91049 0 0 0
-0.787562 4.35707 -1.06626 0 0 0
-2.96666 4.64606 0.75589 0 0 0
0.267958 11.7819 -0.616097 0 0 0
-2.44231 7.24616 -1.19633 0 0 0
-5.57097 9.60119 -2.10691 0 0 0
-2.49274 5.73514 -1.63596 0 0 0
-0.0678855 3.42078 -0.767682 0 0 0
2.37816 7.29816 -1.67316 0 0 0
-4.23527 6.30994 1.01892 0 0 0
-1.6914 6.23557 -1.62673 0 0 0
-2.71798 12.7108 -3.50549 0 0 0
-2.00566 3.30128 0.639984 0 0 0
-2.80408 4.1686 0.752879 0 0 0
-1.647 5.9326 -2.22056 0 0 0
-3.1445 4.35953 0.761126 0 0 0
-9.74504 8.88972 0.354405 0 0 0
-3.41003 2.37524 -1.06301 0 0 0
2.04847 7.89733 -0.862043 0 0 0
-0.40227 3.56633 -0.60741 0 0 0
-0.942645 8.63819 -1.82483 0 0 0
-0.255185 3.57114 -0.766974 0 0 0
-5.34418 4.5437 -2.20675 0 0 0
-1.76545 15.0388 0.873162 0 0 0
-4.23907 3.57537 -2.00531 0 0 0
-4.58738 3.52745 -2.6466 0 0 0
-5.37705 4.49813 -2.85204 0 0 0
-2.34597 5.78061 -1.8603 0 0 0
-1.26872 11.0014 -3.72659 0 0 0
-2.17743 6.26465 -1.2882 0 0 0
-1.72449 6.02579 -1.4777 0 0 0
-1.79112 6.38419 -2.26704 0 0 0
-3.74476 5.89842 0.697441 0 0 0
-2.32669 7.38876 -2.08512 0 0 0
-3.04376 9.87354 -2.91412 0 0 0
-1.93735 6.66703 -1.24169 0 0 0
-6.10763 7.83978 1.16195 0 0 0
-5.79372 10.8248 0.220727 0 0 0
-2.24725 7.2695 -3.10403 0 0 0
0.482164 11.0653 -2.51248 0 0 0
-1.29323 7.57807 -1.94828 0 0 0
-1.03738 10.3624 -3.74067 0 0 0
-9.47417 14.2847 -2.02105 0 0 0
-2.93773 8.79576 -2.5234 0 0 0
-3.75543 5.88705 0.865191 0 0 0
-9.24528 14.4177 -2.46229 0 0 0
-2.79865 12.7301 -2.60913 0 0 0
-6.66117 10.5663 -1.99191 0 0 0
-3.25787 8.63865 -1.31351 0 0 0
-1.60998 6.33824 -2.39179 0 0 0
-6.11606 10.1853 -1.39304 0 0 0
-5.88919 10.9354 0.18279 0 0 0
-1.97041 6.78036 -1.80635 0 0 0
-1.46125 7.18548 -1.87849 0 0 0
-6.52442 10.7567 -1.60553 0 0 0
-0.583645 9.37442 -3.69931 0 0 0
-3.39668 7.29386 -1.43914 0 0 0
-2.23654 7.33299 -1.28061 0 0 0
-3.35285 8.75295 -1.19839 0 0 0
-7.26413 14.3459 -2.07129 0 0 0
-1.68539 6.28432 -2.28624 0 0 0
-8.64745 14.2502 -2.27136 0 0 0
-2.53302 7.871 -2.16973 0 0 0
-4.24017 6.7428 0.695261 0 0 0
0.655109 11.3227 -0.881337 0 0 0
-2.37279 7.00006 -1.11097 0 0 0
-0.996429 6.55268 -1.77817 0 0 0
-1.9089 15.0117 -0.353375 0 0 0
-1.94876 6.74418 -2.79683 0 0 0
-3.83953 6.00137 0.596521 0 0 0
-5.48373 9.63906 0.770128 0 0 0
-5.11261 8.93209 1.36224 0 0 0
-10.3626 16.6724 -2.5462 0 0 0
-6.2952 11.0273 -1.92281 0 0 0
-9.51 14.2774 -2.47366 0 0 0
2.40177 7.33919 -0.690907 0 0 0
-1.96624 6.52492 -1.76849 0 0 0
-3.4803 9.32334 -1.20926 0 0 0
-1.84578 6.49694 -1.5089 0 0 0
0.416495 11.148 -2.85512 0 0 0
-2.4613 7.21142 -1.178 0 0 0
-1.64861 6.2183 -1.49082 0 0 0
-3.14084 8.53204 -1.47103 0 0 0
-2.69671 8.03516 -1.95399 0 0 0
-3.0754 8.71895 -1.33277 0 0 0
0.358034 11.4162 -0.741371 0 0 0
-3.54728 8.9958 -2.47255 0 0 0
-2.48076 7.75745 -1.3114 0 0 0
-2.48962 7.71965 -1.60979 0 0 0
-3.14528 8.97383 -2.24733 0 0 0
-2.97302 8.41023 -1.55802 0 0 0
-2.58556 7.77498 -1.16629 0 0 0
-0.683953 8.93644 -3.60734 0 0 0
-3.09724 8.77995 -1.8579 0 0 0
-3.06936 8.81826 -1.47559 0 0 0
-1.54279 6.2214 -2.3823 0 0 0
-0.924999 9.64008 -3.53952 0 0 0
-2.24921 7.25273 -2.81477 0 0 0
-0.521231 15.0924 1.1277 0 0 0
-0.533164 6.12356 -1.69495 0 0 0
-1.37249 7.43117 -1.89371 0 0 0
-2.03733 6.86441 -1.50544 0 0 0
-1.41192 7.41128 -1.89583 0 0 0
-1.88348 14.9907 0.144975 0 0 0
-1.26383 7.09955 -1.70857 0 0 0
-1.07093 5.23389 -2.28785 0 0 0
-5.32231 12.3537 0.88282 0 0 0
-0.817833 9.01931 -2.93532 0 0 0
-2.13857 6.96398 -3.61625 0 0 0
-1.40644 8.04575 -1.67259 0 0 0
0.455894 6.44167 -1.7317 0 0 0
-4.01074 16.3461 -2.98664 0 0 0
-10.0874 14.2188 -1.89627 0 0 0
-1.53249 10.5754 -2.50559 0 0 0
0.0423229 6.69466 -1.63913 0 0 0
-1.82873 11.0628 -2.4573 0 0 0
0.534982 11.0439 -2.76722 0 0 0
-5.42656 10.0195 -0.0399187 0 0 0
-1.42648 8.40318 -1.61966 0 0 0
-6.16955 13.9137 -2.06842 0 0 0
-6.06957 11.8202 -0.952962 0 0 0
-3.13032 13.9355 -0.633612 0 0 0
1.64172 8.61117 -1.07779 0 0 0
-2.47985 13.1242 -3.05697 0 0 0
-0.680105 8.78446 -2.06568 0 0 0
-4.64393 9.5195 1.14571 0 0 0
-5.25835 13.5688 -1.86759 0 0 0
-2.45227 7.31634 -1.98567 0 0 0
-6.16587 9.67243 -0.369236 0 0 0
-1.01381 7.47454 -1.79164 0 0 0
-5.82184 14.5338 1.33567 0 0 0
-2.84777 13.0646 -2.28971 0 0 0
-1.03911 8.3962 -1.50411 0 0 0
-1.70424 6.12624 -3.11758 0 0 0
-1.24702 8.11225 -1.71619 0 0 0
-0.643416 6.31987 -1.69181 0 0 0
-6.23643 9.25227 -0.299521 0 0 0
-6.08446 8.71009 -0.232228 0 0 0
-4.28477 8.93945 1.01109 0 0 0
-5.96965 13.9677 1.30003 0 0 0
-5.16507 13.1786 0.281545 0 0 0
-5.06265 12.5853 0.261955 0 0 0
-5.197 12.7841 0.397693 0 0 0
2.67168 6.84757 -1.81075 0 0 0
-5.14354 12.4455 0.305754 0 0 0
-3.46769 13.9665 0.691044 0 0 0
-4.12057 13.5064 0.802998 0 0 0
-4.00627 12.8862 0.654817 0 0 0
-8.00108 6.19743 0.854393 0 0 0
-3.2735 13.8793 0.0124847 0 0 0
-12.1876 18.4231 -2.39267 0 0 0
-3.36787 14.0427 1.18398 0 0 0
-0.0450101 6.68467 -1.65865 0 0 0
-2.65518 13.6852 -0.398337 0 0 0
-1.51695 14.3581 -3.73149 0 0 0
-4.28411 13.6534 1.17978 0 0 0
-11.3619 18.4881 -3.02451 0 0 0
-8.17043 15.3881 -2.27599 0 0 0
-1.17979 8.39638 -1.52001 0 0 0
-3.16653 14.4787 -0.216515 0 0 0
-3.46244 11.5854 -2.82673 0 0 0
-3.18111 8.98788 -1.29974 0 0 0
-3.07514 13.9689 -0.925471 0 0 0
-3.61388 17.1894 -2.70668 0 0 0
-6.99111 15.2775 -2.9124 0 0 0
-1.51179 8.22816 -1.60646 0 0 0
-2.67762 12.4562 -2.74961 0 0 0
0.120285 7.57463 -1.67653 0 0 0
-0.934709 8.40772 -1.51533 0 0 0
0.239474 7.69029 -1.69092 0 0 0
-0.392668 7.66334 -1.73285 0 0 0
-0.514994 5.9204 -1.73545 0 0 0
-1.73537 5.99626 -3.13426 0 0 0
-0.515558 6.37496 -1.73615 0 0 0
0.121661 6.28623 -1.72669 0 0 0
0.170064 6.67013 -1.6849 0 0 0
0.526539 6.62498 -1.65271 0 0 0
0.27089 6.7468 -1.69386 0 0 0
1.27523 11.0748 -2.58507 0 0 0
-0.773801 13.8092 -3.01591 0 0 0
-1.98179 14.2608 0.86325 0 0 0
-6.25978 11.9285 -0.649982 0 0 0
-2.39878 13.3672 0.754763 0 0 0
-0.8533 13.1832 0.559105 0 0 0
-0.207736 13.3694 -1.95449 0 0 0
1.04871 10.8541 -3.3685 0 0 0
0.292759 7.52606 -1.69354 0 0 0
1.54718 10.6229 -2.5904 0 0 0
1.44216 10.5391 -2.92305 0 0 0
-1.03556 14.2511 -2.72011 0 0 0
-2.86231 13.9033 -1.24029 0 0 0
1.32076 10.9878 -0.0392609 0 0 0
0.645382 10.9348 0.516563 0 0 0
0.0262384 13.1445 -1.53206 0 0 0
-2.4848 13.6085 1.04919 0 0 0
-0.0927952 13.9185 0.743375 0 0 0
1.48213 10.8953 -0.0314346 0 0 0
-0.755663 13.5198 -2.25918 0 0 0
-1.65365 15.4366 -2.87661 0 0 0
-0.161131 13.218 -2.26717 0 0 0
-0.514883 13.3715 -2.20614 0 0 0
-0.595655 13.526 -2.75442 0 0 0
-2.67187 18.5916 -1.59938 0 0 0
0.00481624 14.4442 -1.56492 0 0 0
-0.874087 8.32034 -1.61516 0 0 0
-1.40431 7.9715 -1.69638 0 0 0
0.663503 7.04303 -1.70145 0 0 0
0.769697 6.84629 -1.71209 0 0 0
0.565026 7.14554 -1.7072 0 0 0
1.32754 10.8112 -3.0728 0 0 0
1.57164 10.585 -3.05047 0 0 0
1.55199 10.6704 -2.81274 0 0 0
1.67237 8.62033 -2.0738 0 0 0
1.51381 10.1853 -2.36687 0 0 0
0.968906 10.2134 -3.72319 0 0 0
1.68908 8.58933 -2.25436 0 0 0
2.05629 7.90055 -1.63097 0 0 0
2.34875 7.36588 -0.628112 0 0 0
-0.123031 6.08606 -2.25677 0 0 0
1.43277 9.17266 -3.72556 0 0 0
2.35622 7.3794 -1.63548 0 0 0
1.18856 10.7483 -3.66715 0 0 0
1.68192 8.75812 -3.1953 0 0 0
2.60692 6.94234 -1.6406 0 0 0
-3.19243 4.73993 0.0306317 0 0 0
0.395907 11.6482 -1.35501 0 0 0
-2.92129 10.7856 -2.69964 0 0 0
0.38815 11.3489 -0.410288 0 0 0
0.528246 11.4339 -1.42451 0 0 0
2.10175 7.86549 -1.23004 0 0 0
1.20801 11.0139 -1.39336 0 0 0
-0.401617 14.0936 -2.96572 0 0 0
1.18006 10.8598 -0.913279 0 0 0
-0.924418 10.1386 -3.74295 0 0 0
2.09851 7.85052 -0.862902 0 0 0
2.05363 7.91099 -0.433354 0 0 0
2.36069 7.43098 -0.728634 0 0 0
2.39268 7.28386 -0.311403 0 0 0
0.560437 10.8364 -3.70762 0 0 0
2.34685 7.35865 -0.869477 0 0 0
2.09765 7.91319 -0.432956 0 0 0
2.08882 7.82009 -0.686687 0 0 0
2.11575 8.02273 -0.802167 0 0 0
2.38646 7.26328 -0.850528 0 0 0
-0.629053 7.10574 -1.72532 0 0 0
0.547676 7.09307 -1.58867 0 0 0
1.6467 9.10361 -1.95666 0 0 0
1.13805 10.9586 -3.2004 0 0 0
1.06249 10.7939 -3.43886 0 0 0
1.42942 10.9969 -2.30649 0 0 0
1.2095 10.8848 -3.27882 0 0 0
2.40266 7.32742 -1.54235 0 0 0
-3.23879 13.831 -1.13741 0 0 0
1.6833 8.6153 -3.72327 0 0 0
-8.3687 7.57404 0.440275 0 0 0
2.39259 7.28403 -1.7241 0 0 0
1.10228 8.98738 -3.75452 0 0 0
1.65771 8.87695 -3.56412 0 0 0
0.540882 8.94027 -3.71816 0 0 0
0.627781 11.5353 -0.395159 0 0 0
0.788178 6.7023 -1.72716 0 0 0
1.32185 9.59748 -3.71301 0 0 0
-7.66688 14.6407 -1.70736 0 0 0
0.0299563 6.62812 -1.66775 0 0 0
1.61775 9.42557 -2.82213 0 0 0
-2.6957 13.0645 -3.05015 0 0 0
1.16764 10.1772 -3.73906 0 0 0
-0.816415 8.57427 -1.51878 0 0 0
0.307027 11.8267 -1.27712 0 0 0
2.3913 7.28923 -0.777041 0 0 0
-2.44314 7.8242 -1.95022 0 0 0
1.72739 8.17626 -1.7621 0 0 0
2.094 7.82268 -1.62484 0 0 0
-0.801406 9.08294 -3.60561 0 0 0
2.61952 6.91438 -1.68512 0 0 0
-0.126868 8.80966 -3.74695 0 0 0
0.655128 8.74576 -3.74622 0 0 0
1.47324 9.32006 -3.70144 0 0 0
0.966446 9.15679 -3.70649 0 0 0
-6.22463 11.9288 -1.13815 0 0 0
0.0135626 8.57089 -3.75017 0 0 0
-2.54039 14.0878 -0.0860225 0 0 0
-0.143835 8.6174 -3.74547 0 0 0
-6.95784 15.7228 -2.45486 0 0 0
-8.84308 14.6165 -1.85666 0 0 0
2.3123 7.43534 -1.62814 0 0 0
-0.381302 9.22851 -3.75379 0 0 0
0.661253 11.3312 -0.87299 0 0 0
-2.64494 15.5355 -1.40953 0 0 0
-1.08757 9.70437 -3.51069 0 0 0
-9.62649 15.7608 -2.18121 0 0 0
-7.75472 14.8988 -1.62037 0 0 0
-2.02447 11.5865 -3.02082 0 0 0
1.70893 8.49363 -1.11399 0 0 0
1.7124 8.4811 -0.987161 0 0 0
1.07481 10.9633 -1.39662 0 0 0
0.625153 7.00951 -1.67273 0 0 0
-1.77293 5.34322 -2.18866 0 0 0
2.04987 7.89472 -0.962352 0 0 0
-0.106859 7.33336 -1.69151 0 0 0
-0.464749 8.80617 -2.90248 0 0 0
0.382557 7.35359 -1.73189 0 0 0
-1.63473 11.4934 -3.71447 0 0 0
1.64924 8.84445 -3.18152 0 0 0
-2.37717 12.2898 -3.45467 0 0 0
-0.356739 8.97185 -3.7449 0 0 0
-1.23958 10.2206 -3.28922 0 0 0
-1.17211 10.0424 -3.44286 0 0 0
0.410745 11.1024 -2.98834 0 0 0
0.959044 10.2982 -3.80545 0 0 0
0.616847 10.5568 -3.68884 0 0 0
-0.866845 8.57448 -1.51524 0 0 0
2.05594 7.90381 -1.71676 0 0 0
-0.548033 13.9019 -2.11237 0 0 0
-0.294329 8.85926 -3.74904 0 0 0
0.117405 8.38821 -3.74727 0 0 0
0.643197 9.30068 -3.76195 0 0 0
-1.2999 11.312 -3.72018 0 0 0
-3.40029 9.13043 -1.08067 0 0 0
-11.6026 17.9734 -1.96534 0 0 0
-8.93535 14.5728 -1.67531 0 0 0
-5.19443 12.5787 0.527 0 0 0
0.353095 11.5994 -0.80995 0 0 0
-1.74099 14.5487 -1.18465 0 0 0
0.952323 11.0736 -0.392954 0 0 0
1.64199 8.62369 -0.529532 0 0 0
-4.27373 13.3282 -2.47605 0 0 0
0.875924 10.8063 -1.35898 0 0 0
-0.484 13.9289 -1.498 0 0 0
0.638146 7.06547 -1.68997 0 0 0
0.583393 7.49016 -1.71423 0 0 0
-1.28818 10.7466 -3.75119 0 0 0
-0.466588 8.56948 -3.63121 0 0 0
-6.18128 11.7353 -1.36487 0 0 0
-1.75198 14.5179 -1.36846 0 0 0
1.31807 11.019 -0.431596 0 0 0
-9.30039 14.5635 -2.33029 0 0 0
-0.640623 13.5482 -3.23437 0 0 0
-1.68336 15.4898 -3.49455 0 0 0
0.344498 7.64634 -1.70423 0 0 0
-1.93973 11.7291 -3.79372 0 0 0
-1.4795 11.0711 -3.75438 0 0 0
-0.727332 9.82429 -3.73795 0 0 0
-1.27012 10.2415 -3.1607 0 0 0
-6.15629 9.89597 -0.976227 0 0 0
1.47907 10.2803 -3.14027 0 0 0
-1.0449 9.38787 -3.76945 0 0 0
-0.519209 9.47797 -3.76109 0 0 0
-0.406644 9.57178 -3.74326 0 0 0
-0.379508 9.05314 -3.68195 0 0 0
-5.35034 10.0054 -0.455902 0 0 0
0.840953 10.2006 -3.74667 0 0 0
1.59052 10.3884 -3.16462 0 0 0
-5.99969 12.0144 -0.622866 0 0 0
-9.84771 14.4937 -1.84205 0 0 0
-0.724046 8.76572 -1.87637 0 0 0
-6.30622 11.8322 -0.929106 0 0 0
-6.23676 11.9253 -0.360001 0 0 0
-2.95394 13.8501 -0.314616 0 0 0
-1.72601 14.5466 -0.940288 0 0 0
1.41102 11.3666 -0.402064 0 0 0
-3.49844 10.7769 -2.43758 0 0 0
-4.57656 12.7922 -3.1452 0 0 0
-2.21483 7.16398 -1.34029 0 0 0
-3.753 15.8665 -2.84161 0 0 0
1.59247 11.2921 -0.975515 0 0 0
1.00169 10.8991 -1.38196 0 0 0
1.6185 11.3614 -1.61148 0 0 0
-0.8092 8.25243 -1.92175 0 0 0
-0.809945 8.2486 -1.83597 0 0 0
-2.34834 10.1522 -2.539 0 0 0
-1.56756 9.86348 -3.402 0 0 0
-0.562969 8.63524 -2.19231 0 0 0
-1.28996 9.88105 -3.43872 0 0 0
-2.30984 11.0634 -3.26737 0 0 0
0.387323 11.0772 -2.68263 0 0 0
-1.06385 13.4883 -3.69878 0 0 0
1.5335 10.608 -2.68053 0 0 0
-0.908387 9.52987 -3.59592 0 0 0
-0.901591 9.88433 -3.65594 0 0 0
-6.44122 11.9875 -0.401375 0 0 0
1.10248 10.8167 -3.49684 0 0 0
0.729323 10.3816 -3.72656 0 0 0
0.203332 10.3046 -3.73289 0 0 0
0.701643 10.6845 -3.73758 0 0 0
1.83867 10.5807 -2.91397 0 0 0
-0.741381 8.94703 -2.28426 0 0 0
-2.54488 7.71281 -1.25931 0 0 0
2.00286 12.4747 -2.7871 0 0 0
-1.70349 9.57761 -3.39554 0 0 0
1.74571 10.6784 -2.56561 0 0 0
-2.95095 12.6366 -2.82708 0 0 0
-3.56622 11.0291 -2.52257 0 0 0
1.74373 11.6805 -0.76628 0 0 0
0.906771 10.9776 -0.428622 0 0 0
1.32008 10.9972 -0.433409 0 0 0
0.797302 11.0383 -0.407898 0 0 0
1.59222 11.2919 -0.88198 0 0 0
-9.37768 14.3604 -2.42732 0 0 0
-4.34087 13.5104 -2.79389 0 0 0
-4.12783 13.4528 -2.57969 0 0 0
-2.96433 10.9571 -2.69671 0 0 0
-2.83535 12.9154 -2.03502 0 0 0
-0.6639 13.7342 -2.57942 0 0 0
-2.55933 10.0311 -2.35199 0 0 0
-2.53957 7.74934 -1.47501 0 0 0
-0.767965 13.1825 -3.68005 0 0 0
-0.652096 13.5218 -3.38671 0 0 0
-3.02116 8.52058 -2.19074 0 0 0
1.63713 10.7085 -2.6063 0 0 0
-2.7539 13.8389 -0.761313 0 0 0
2.07773 8.06395 0.603443 0 0 0
-2.55217 12.2154 -3.00568 0 0 0
0.764693 10.8808 -1.36745 0 0 0
0.470162 11.3768 -3.49154 0 0 0
-4.25375 5.20919 0.0347496 0 0 0
-7.59332 14.5773 -1.93453 0 0 0
1.00297 2.52554 -2.73058 0 0 0
-0.546001 15.157 -0.868875 0 0 0
-2.74981 11.2335 -2.72099 0 0 0
-2.90905 9.7855 -2.81062 0 0 0
-2.77571 11.4907 -2.55443 0 0 0
-2.72198 11.2096 -2.73912 0 0 0
0.198923 11.7987 -3.01449 0 0 0
-2.804 12.8594 -2.37445 0 0 0
0.376725 11.3854 -3.63967 0 0 0
0.301542 11.1398 -2.81905 0 0 0
-2.3015 7.38552 -1.26346 0 0 0
-8.0163 15.1767 -2.32354 0 0 0
-0.703202 13.985 -2.83623 0 0 0
-2.5216 13.0463 -3.9678 0 0 0
-3.1136 11.3154 -2.85236 0 0 0
-2.38495 11.9368 -3.07001 0 0 0
-2.50514 10.1193 -2.38354 0 0 0
-1.14518 5.1746 -1.34776 0 0 0
3.32985 6.09532 -3.73706 0 0 0
-2.24646 6.90449 -1.06611 0 0 0
-0.54223 15.022 -0.602543 0 0 0
4.11431 5.52245 -3.61691 0 0 0
-8.34116 14.3014 -2.25591 0 0 0
-4.69785 11.1774 -2.78509 0 0 0
-5.2466 12.5574 -1.30807 0 0 0
-3.24652 13.8169 -0.356431 0 0 0
-2.49532 9.99609 -2.32979 0 0 0
0.366528 11.5102 -0.652981 0 0 0
-4.04398 4.08518 0.876236 0 0 0
-2.66687 11.4263 -2.72726 0 0 0
-2.39673 7.73502 -2.81505 0 0 0
0.658233 11.3234 -0.870356 0 0 0
1.30136 2.40974 -2.74998 0 0 0
-0.874443 4.77644 -1.27232 0 0 0
-7.54005 14.5517 -2.231 0 0 0
-4.06795 13.3009 1.46011 0 0 0
-10.2097 13.8557 -2.88993 0 0 0
-6.14535 6.79212 -2.27615 0 0 0
-9.87024 14.3062 -1.93874 0 0 0
0.015231 3.08782 -0.297773 0 0 0
-5.06991 13.2198 -2.05523 0 0 0
-10.8345 7.3854 -0.0446881 0 0 0
-5.068 13.3374 -2.99467 0 0 0
-2.76941 13.9664 -1.39648 0 0 0
1.52233 9.01827 -1.72307 0 0 0
-2.31583 12.5385 -3.69767 0 0 0
-2.72389 7.99236 -2.28367 0 0 0
-2.43991 10.1207 -2.47686 0 0 0
-4.6776 11.1159 -2.93488 0 0 0
-3.97103 13.7195 -3.58419 0 0 0
-2.09051 10.4995 -2.83365 0 0 0
-2.11658 9.95205 -3.08542 0 0 0
-2.55218 12.2155 -3.0057 0 0 0
-4.07927 10.0539 -2.71161 0 0 0
-2.03466 11.7799 -3.62774 0 0 0
-0.166892 11.9641 -3.72311 0 0 0
-3.19866 8.53029 -3.07846 0 0 0
-0.0740282 13.047 -2.73132 0 0 0
0.944795 10.8227 -2.27404 0 0 0
-4.53583 11.2653 -3.48658 0 0 0
-1.35645 10.8939 -3.74529 0 0 0
-4.45322 8.97923 -1.68931 0 0 0
-6.9358 9.71051 0.353166 0 0 0
0.536978 11.1535 -1.40124 0 0 0
0.928149 11.0958 -3.30016 0 0 0
0.241207 11.3803 -3.75019 0 0 0
-1.68415 14.5349 -3.63736 0 0 0
-3.8393 13.66 0.705073 0 0 0
-0.719289 18.5545 -1.57624 0 0 0
-4.42232 13.3103 -0.636186 0 0 0
-6.49565 7.39775 0.571169 0 0 0
-7.70139 14.8524 -1.7415 0 0 0
-1.55033 11.1881 -3.41005 0 0 0
-4.08015 10.6767 -2.94481 0 0 0
-3.04597 8.85325 -2.30053 0 0 0
-0.767346 13.4889 -2.45569 0 0 0
-1.51443 11.1569 -3.72663 0 0 0
2.55965 3.08508 -1.78923 0 0 0
-4.20744 13.3637 -3.13788 0 0 0
-2.73457 11.4217 -2.80499 0 0 0
-5.55213 10.3781 -0.409225 0 0 0
-2.1674 10.0537 -2.98545 0 0 0
-1.45534 11.3979 -3.69726 0 0 0
-9.71753 14.0149 -1.8701 0 0 0
0.561199 11.0847 -2.64869 0 0 0
0.511848 11.0458 -2.29203 0 0 0
-3.72117 10.0992 -2.85632 0 0 0
0.277797 11.2034 -2.74179 0 0 0
-4.21282 13.3215 -0.388895 0 0 0
-2.61015 11.8885 -2.53115 0 0 0
-3.32474 12.9104 -3.34102 0 0 0
-8.00217 6.75816 -1.68876 0 0 0
-1.73058 6.29758 -1.60666 0 0 0
-4.45644 14.728 -3.10772 0 0 0
-8.233 7.59673 0.0678803 0 0 0
-2.7107 12.5111 -2.78437 0 0 0
1.41554 2.90855 -2.87256 0 0 0
-5.10347 13.018 0.316147 0 0 0
-2.9533 8.79514 -2.54981 0 0 0
-3.24963 13.7635 -0.966256 0 0 0
-5.22741 10.2942 -1.87732 0 0 0
0.221411 2.94207 -2.474 0 0 0
0.741165 7.30811 -3.70257 0 0 0
-0.238654 15.9903 0.180493 0 0 0
-7.56892 11.5792 -2.03039 0 0 0
0.36385 11.3379 -0.456591 0 0 0
-10.0974 9.79751 -3.17824 0 0 0
0.730985 11.0467 -0.416994 0 0 0
-7.28165 15.7078 -2.63378 0 0 0
-7.54186 16.2808 -2.99649 0 0 0
-1.95421 6.65052 -1.20145 0 0 0
-3.64554 17.7551 -1.82428 0 0 0
0.0486347 13.2684 -1.82363 0 0 0
-0.100111 13.2471 -1.73216 0 0 0
-1.14892 18.4522 -1.78726 0 0 0
-0.862793 4.76219 -1.40016 0 0 0
-0.0950846 13.3336 -1.73347 0 0 0
0.367882 11.9444 -1.33732 0 0 0
-4.24144 13.108 -1.28812 0 0 0
-2.30575 7.20607 -1.81346 0 0 0
-5.74322 11.8331 -2.93065 0 0 0
-2.39883 12.6087 -2.96341 0 0 0
-5.70663 10.5882 -0.115757 0 0 0
-2.29593 12.5483 -3.71716 0 0 0
-2.88169 12.5244 -2.71458 0 0 0
0.41418 11.1424 -2.85464 0 0 0
-2.35887 10.0037 -3.03209 0 0 0
0.791287 10.8557 -2.28266 0 0 0
0.602132 11.0455 -2.27732 0 0 0
0.632158 11.0557 -2.73918 0 0 0
-3.13969 8.58965 -2.36816 0 0 0
1.01594 10.8196 -2.28652 0 0 0
0.308429 11.7262 -1.48827 0 0 0
-1.4347 14.8864 -3.30319 0 0 0
-1.6783 14.5865 -3.68963 0 0 0
-2.74135 13.7729 -0.293355 0 0 0
-5.43902 3.39031 -0.652691 0 0 0
-3.1066 11.3127 -2.8563 0 0 0
-3.13247 8.72513 -1.65441 0 0 0
-0.193166 12.2156 -3.69893 0 0 0
-0.115819 18.8854 -1.63019 0 0 0
-2.33958 11.87 -3.6544 0 0 0
-6.31014 12.0108 0.26171 0 0 0
2.05117 7.91901 0.897319 0 0 0
-3.59855 8.85019 -1.35812 0 0 0
-0.0521503 2.90188 0.300986 0 0 0
-3.20885 13.6326 -0.665495 0 0 0
-7.98567 11.0876 -1.13008 0 0 0
0.435994 1.03969 0.940577 0 0 0
-0.542232 16.6722 -1.81669 0 0 0
-6.45763 7.90361 -0.804897 0 0 0
0.0354191 13.082 -1.98215 0 0 0
-5.99142 3.86887 1.68007 0 0 0
-1.16365 14.4244 -2.87912 0 0 0
-7.13534 8.58729 -1.79902 0 0 0
-3.02604 11.3991 -2.5332 0 0 0
-0.114495 3.25764 -0.7464 0 0 0
-1.633 10.5274 -2.29435 0 0 0
0.492886 0.948658 0.712402 0 0 0
0.427372 11.2147 -2.55052 0 0 0
0.404041 11.4643 -1.37909 0 0 0
-2.99075 1.40123 0.705992 0 0 0
-3.22041 13.8981 -0.787125 0 0 0
-6.88778 13.9482 -2.08859 0 0 0
-1.04378 14.9272 -2.37834 0 0 0
-4.10811 13.1377 -0.718117 0 0 0
-0.334486 18.8549 -1.88102 0 0 0
-0.891368 18.1763 -1.52259 0 0 0
-6.21997 9.54044 -1.24132 0 0 0
0.218041 3.55072 -2.99648 0 0 0
-0.306451 17.3816 -2.0473 0 0 0
-5.65507 5.60328 -2.52243 0 0 0
3.94966 20.9166 -3.54385 0 0 0
-4.84626 10.756 -3.29131 0 0 0
-3.4409 10.7455 -2.41189 0 0 0
-2.44073 7.83421 -2.26853 0 0 0
-5.55503 12.0966 -2.75521 0 0 0
-5.40728 4.28553 -1.98894 0 0 0
-1.61675 10.2118 -2.37656 0 0 0
-0.976458 13.5149 -3.74401 0 0 0
0.269351 13.3446 -2.7795 0 0 0
0.32157 13.8408 -2.73353 0 0 0
-9.83396 9.03156 0.446074 0 0 0
1.82714 5.15938 -3.75082 0 0 0
-0.33789 12.4405 -3.68335 0 0 0
-1.26857 12.3658 -3.72245 0 0 0
-0.421168 12.379 -3.68989 0 0 0
-6.21129 12.1514 -0.661355 0 0 0
0.332393 11.2588 -2.68421 0 0 0
-6.3905 12.0479 -1.05233 0 0 0
4.50178 4.72778 -1.22671 0 0 0
0.792236 2.40761 -2.54275 0 0 0
-5.71574 12.0179 -2.98655 0 0 0
-2.25211 12.3666 -3.71555 0 0 0
-5.13165 12.4839 -2.68531 0 0 0
-2.96259 16.0803 -3.7408 0 0 0
-0.298584 19.0768 -1.51094 0 0 0
-0.0827747 12.948 -1.95496 0 0 0
-5.8986 9.07016 -1.21525 0 0 0
-2.99689 8.36314 -1.42217 0 0 0
-3.36392 13.5532 -1.28858 0 0 0
-0.23636 12.2875 -3.68061 0 0 0
-4.46565 13.0367 -1.32503 0 0 0
0.602624 2.07475 -0.00849221 0 0 0
-5.05265 13.2593 -2.23087 0 0 0
2.18107 3.70043 -1.81431 0 0 0
-3.24878 13.7814 0.0463804 0 0 0
-9.58961 14.4218 -2.06858 0 0 0
1.87563 5.63849 -3.76281 0 0 0
-9.88227 15.9811 -2.44464 0 0 0
-6.1115 15.0888 -1.5616 0 0 0
-2.26122 11.5808 -3.62732 0 0 0
-3.7174 16.868 -2.88223 0 0 0
-1.74154 19.2828 -1.83163 0 0 0
-0.100258 13.2057 -1.92631 0 0 0
-1.99796 13.871 -3.71536 0 0 0
-0.209997 13.4547 -1.87699 0 0 0
-3.12531 18.8739 -3.56707 0 0 0
0.31541 2.88333 -2.09701 0 0 0
0.310882 13.371 -1.58872 0 0 0
0.309953 13.4909 -1.7254 0 0 0
-5.66414 10.6864 0.0615164 0 0 0
0.0217095 13.4347 -1.66016 0 0 0
-3.74417 10.8753 -2.37368 0 0 0
-3.01543 11.1308 -2.81015 0 0 0
-3.5687 11.2804 -2.90633 0 0 0
-3.34764 10.7734 -2.67141 0 0 0
-9.00103 6.30598 -0.764315 0 0 0
-0.267756 1.18139 -2.81808 0 0 0
-4.34553 6.7601 0.831138 0 0 0
-5.07239 10.9811 -2.77624 0 0 0
-3.45685 11.3653 -3.46888 0 0 0
-4.72778 11.0637 -2.94074 0 0 0
-2.29448 10.1138 -2.48796 0 0 0
-0.192427 3.08404 0.0500179 0 0 0
-2.54054 10.1432 -2.75281 0 0 0
-5.02028 13.299 -2.93942 0 0 0
-2.71659 10.9512 -3.12569 0 0 0
-1.72386 10.4561 -2.44045 0 0 0
-2.47704 10.187 -2.41441 0 0 0
-6.30465 9.32041 0.230499 0 0 0
-2.02317 11.7389 -3.68746 0 0 0
-0.504819 12.7661 -3.69456 0 0 0
0.1898 12.601 -3.24152 0 0 0
-9.24915 14.6139 -2.20713 0 0 0
-1.68207 6.24693 -2.31075 0 0 0
-3.43534 11.2216 -3.36873 0 0 0
-0.379959 7.08342 -1.64281 0 0 0
2.6075 2.99318 -1.78824 0 0 0
-0.807875 4.34772 -1.7686 0 0 0
-2.66584 12.7874 -3.19556 0 0 0
-4.27229 13.0954 -0.445843 0 0 0
-2.5391 13.2611 0.671206 0 0 0
-3.16478 13.5535 -1.66884 0 0 0
-1.14842 14.6954 -2.62622 0 0 0
-6.58937 12.8556 -3.52912 0 0 0
2.10981 3.38572 -1.72073 0 0 0
0.675615 3.59406 -3.26713 0 0 0
-0.657265 13.7306 -2.72694 0 0 0
-0.839615 13.6148 -2.60263 0 0 0
-1.56946 10.5687 -2.30407 0 0 0
-6.17706 11.9563 -0.933486 0 0 0
2.63806 6.63243 0.0538542 0 0 0
-2.59868 14.0734 -0.771698 0 0 0
-3.57788 10.6544 -2.71775 0 0 0
-5.2417 12.5627 -0.321299 0 0 0
-2.2032 6.86259 -1.25865 0 0 0
-2.47733 12.8139 -3.61183 0 0 0
-5.51366 12.5023 -0.778823 0 0 0
-6.84149 15.6774 -3.66565 0 0 0
-2.75427 14.1126 -0.141449 0 0 0
-2.69465 14.0418 -0.623919 0 0 0
-3.29318 13.8891 -0.885682 0 0 0
-5.50268 12.4914 -1.05959 0 0 0
-5.52204 12.517 -0.530951 0 0 0
-4.3932 11.7629 -0.852074 0 0 0
-3.63731 13.6794 -0.639339 0 0 0
-2.61651 14.1121 -0.100201 0 0 0
-10.463 13.5945 -2.73028 0 0 0
-9.92147 14.2636 -2.00904 0 0 0
-9.04958 14.731 -2.10912 0 0 0
-1.98011 6.71367 -1.32838 0 0 0
2.10793 7.84717 -2.96071 0 0 0
-3.12251 13.464 -1.78923 0 0 0
-1.10127 5.18523 -1.42669 0 0 0
-1.64302 15.2727 -2.84066 0 0 0
-4.62603 11.2029 -2.82259 0 0 0
-5.58663 11.3851 -2.53901 0 0 0
-8.33427 6.99328 -1.20087 0 0 0
-5.53105 11.4734 -2.63962 0 0 0
-5.57554 11.1885 -2.64051 0 0 0
-2.60493 13.0371 -2.72085 0 0 0
-7.43669 8.77294 -2.28456 0 0 0
-2.67212 10.1225 -2.44257 0 0 0
-3.26599 8.76448 -1.16985 0 0 0
-2.50167 12.5791 -3.70455 0 0 0
-7.5682 12.0541 -1.57012 0 0 0
-1.05058 13.3769 -3.71613 0 0 0
1.31138 2.888 -2.76997 0 0 0
-2.88593 11.3332 -2.86588 0 0 0
-6.18822 9.59187 -1.38314 0 0 0
-4.55989 3.11345 -1.55388 0 0 0
-5.81213 15.8128 -1.4789 0 0 0
-5.65905 9.79509 -0.243321 0 0 0
-5.44598 4.98159 -2.45153 0 0 0
-4.70118 12.9699 -3.61198 0 0 0
-6.22931 11.9431 -0.376823 0 0 0
0.440803 2.38706 -2.46414 0 0 0
0.381331 6.39738 -2.77207 0 0 0
-4.82638 10.6153 -2.60884 0 0 0
-8.67083 7.22851 0.991511 0 0 0
-0.884776 10.0326 -3.82978 0 0 0
-6.96373 11.271 -0.844294 0 0 0
-1.93037 6.66605 -1.44825 0 0 0
-5.65152 10.8755 -0.203047 0 0 0
-5.70859 10.8651 -0.370339 0 0 0
-6.7422 10.9305 -0.987092 0 0 0
-2.00358 7.388 -2.05209 0 0 0
-5.6832 10.7463 -0.474256 0 0 0
-3.59832 9.62206 -3.30748 0 0 0
-6.39786 11.9828 -0.67769 0 0 0
-6.26766 11.9927 0.0147285 0 0 0
-2.87958 13.8524 -0.30904 0 0 0
-2.98772 9.53267 -2.87104 0 0 0
2.46059 5.87372 -3.76512 0 0 0
-5.84394 11.1634 -2.03597 0 0 0
-0.216474 0.0471838 -3.26735 0 0 0
-6.09917 11.3242 -1.95242 0 0 0
-4.9375 10.4126 -1.76449 0 0 0
-3.3183 8.77544 -1.16097 0 0 0
-5.80425 10.9462 -1.89936 0 0 0
0.919403 0.617081 -0.451283 0 0 0
-3.13357 13.6906 -1.4471 0 0 0
-2.99829 19.0145 -2.48605 0 0 0
3.6234 6.27602 -1.15338 0 0 0
-4.76559 10.6522 -2.77123 0 0 0
-4.84922 11.2046 -2.8897 0 0 0
-4.55579 13.3085 -3.06433 0 0 0
-2.72746 12.8063 -2.52546 0 0 0
-5.32829 8.24632 -1.2477 0 0 0
-3.70674 5.89116 0.692331 0 0 0
-1.67138 15.46 -3.58168 0 0 0
-1.9077 14.9963 -3.57198 0 0 0
-3.21894 5.27218 -3.00794 0 0 0
-4.87305 10.1861 -2.93832 0 0 0
-3.77772 9.70499 -2.72344 0 0 0
2.65548 7.29848 0.47349 0 0 0
-2.18513 11.4082 -3.08328 0 0 0
-2.9565 8.36857 -1.76142 0 0 0
-1.69993 13.7927 -3.81277 0 0 0
-6.06294 9.14248 -1.3525 0 0 0
-0.470978 13.35 -2.17948 0 0 0
-3.92876 10.412 -2.89302 0 0 0
-11.9119 8.10085 -3.0113 0 0 0
-3.64625 10.2535 -3.00912 0 0 0
-3.36613 9.35207 -3.16146 0 0 0
-4.5724 10.2113 -2.86563 0 0 0
-5.61848 5.13065 -1.83024 0 0 0
3.24942 5.9877 -3.69829 0 0 0
-3.49042 10.6661 -2.65663 0 0 0
-3.15662 11.6566 -2.83829 0 0 0
-3.71124 10.292 -2.89863 0 0 0
2.11983 4.02758 -2.34422 0 0 0
-3.7269 10.7282 -3.03592 0 0 0
-2.54253 12.4706 -2.92592 0 0 0
3.64688 6.13078 -2.3218 0 0 0
-4.90362 13.3981 0.321813 0 0 0
0.277393 11.6915 -0.938347 0 0 0
-2.45836 11.6704 -2.55947 0 0 0
-3.28714 10.8168 -2.70516 0 0 0
-5.81783 10.5717 -0.53955 0 0 0
-5.75772 10.742 -0.19487 0 0 0
-5.9774 12.1266 -0.480963 0 0 0
-6.75478 11.2976 -0.961765 0 0 0
-5.59825 10.8257 -0.140939 0 0 0
-6.2819 11.8777 -0.498968 0 0 0
-6.71909 6.02969 -1.66482 0 0 0
-1.50045 13.7347 -3.67015 0 0 0
1.54139 5.8977 -3.91933 0 0 0
-3.36757 13.7027 -0.722469 0 0 0
-3.31113 13.7357 -0.151254 0 0 0
-2.53184 14.0045 -0.239218 0 0 0
-5.87362 9.01012 -0.380235 0 0 0
1.24268 5.70779 -2.87203 0 0 0
-6.41706 10.4655 -1.3204 0 0 0
-5.79063 12.1211 -2.82076 0 0 0
-4.52433 11.6424 -2.74944 0 0 0
-3.51389 9.29701 -1.60897 0 0 0
-3.28313 10.5891 -2.40666 0 0 0
-4.5632 11.5245 -2.85278 0 0 0
0.786421 1.9446 -2.49215 0 0 0
-3.59347 10.6113 -2.54092 0 0 0
-2.53595 16.7428 -3.66995 0 0 0
-7.08629 9.38205 -1.92507 0 0 0
0.189126 1.05371 -0.87927 0 0 0
-3.63502 10.2937 -2.95221 0 0 0
-3.44042 11.2687 -3.38638 0 0 0
-2.6798 11.4784 -2.68784 0 0 0
-3.1941 11.5939 -3.05996 0 0 0
-2.2699 12.4106 -3.74017 0 0 0
-2.23957 12.6485 -3.60939 0 0 0
-2.45178 12.8666 -3.43 0 0 0
-1.89893 14.4703 -3.70456 0 0 0
0.144791 6.39678 -2.98487 0 0 0
-4.69624 11.6678 -3.6252 0 0 0
-3.31282 9.22991 -1.31903 0 0 0
-1.07378 5.18269 -1.48935 0 0 0
-2.93364 8.53732 -1.57792 0 0 0
-3.25103 9.09923 -1.73607 0 0 0
-5.63057 12.2277 0.310051 0 0 0
0.641761 7.07889 -1.72802 0 0 0
-3.37184 18.6353 -2.10392 0 0 0
-3.14727 8.76387 -1.6662 0 0 0
-2.48855 13.3729 -4.11905 0 0 0
-4.69861 13.1057 1.44471 0 0 0
0.079755 11.8296 -2.92539 0 0 0
-3.3515 9.27211 -1.39237 0 0 0
-6.66662 12.349 0.447497 0 0 0
-5.95376 9.19897 -1.17819 0 0 0
-3.20149 8.86771 -1.53174 0 0 0
-3.01745 8.82316 -1.87181 0 0 0
0.666924 1.60749 -1.88084 0 0 0
-3.31098 8.92692 -1.39489 0 0 0
-3.5657 9.05145 -1.77913 0 0 0
-4.1934 10.9522 -3.09947 0 0 0
-8.46115 9.13075 -0.732501 0 0 0
-2.86194 8.45508 -1.74592 0 0 0
0.452753 2.24683 -1.2669 0 0 0
-5.99244 9.64816 -0.243575 0 0 0
0.0190231 6.27103 -2.8005 0 0 0
-6.37326 9.20635 -0.227112 0 0 0
-5.53175 10.1555 -0.143845 0 0 0
-1.68741 6.31838 -2.3342 0 0 0
-5.63778 10.0944 -0.577744 0 0 0
-6.52726 12.0403 -0.198687 0 0 0
-5.8126 12.2171 -0.0115223 0 0 0
-5.24199 12.8552 0.364365 0 0 0
-3.27953 13.8563 -0.603011 0 0 0
-2.6559 14.026 -0.167837 0 0 0
-2.63917 13.7418 -0.37469 0 0 0
-5.88293 13.5501 -1.98291 0 0 0
2.22657 4.73301 -3.7363 0 0 0
-3.19114 13.7717 -1.97379 0 0 0
-1.46013 5.40496 -3.01492 0 0 0
-3.01328 13.417 -1.88385 0 0 0
-3.19152 8.86387 -1.37491 0 0 0
-2.58019 13.6161 -1.33003 0 0 0
-3.06278 8.70892 -1.48704 0 0 0
-0.799028 8.40152 -1.61485 0 0 0
-3.00409 8.44674 -1.59111 0 0 0
-2.86107 8.45485 -1.7456 0 0 0
-2.27253 11.6116 -3.3611 0 0 0
-1.70336 15.0253 -3.5403 0 0 0
-6.88846 12.5178 -3.3896 0 0 0
-5.43832 12.7824 0.519095 0 0 0
-6.12292 9.42463 -1.12199 0 0 0
-2.82978 8.21924 -1.66445 0 0 0
-4.71051 8.07802 -0.997117 0 0 0
-2.08838 11.1616 -3.33033 0 0 0
-3.19972 8.96427 -2.22441 0 0 0
-5.42519 12.5079 0.266925 0 0 0
-6.89312 9.91783 -1.346 0 0 0
-6.72787 7.51211 0.366936 0 0 0
-6.57091 9.61169 -0.341885 0 0 0
-2.31148 7.38102 -1.29479 0 0 0
-2.7178 10.1393 -2.53472 0 0 0
-7.48866 9.56499 0.137379 0 0 0
-3.43691 8.98026 -1.10003 0 0 0
-2.09106 5.56711 -2.6538 0 0 0
-5.36126 8.68272 -1.09189 0 0 0
-5.98892 10.4063 -0.41967 0 0 0
-3.89663 12.958 -2.47642 0 0 0
-5.63536 9.69238 -0.207537 0 0 0
-1.04878 4.56808 -1.20055 0 0 0
-6.15672 8.97009 -1.34874 0 0 0
-2.99216 8.35456 -1.38414 0 0 0
-6.34323 10.3956 -1.34107 0 0 0
-6.61229 7.61188 0.614398 0 0 0
-0.809074 4.52278 -2.78029 0 0 0
-6.96178 9.12222 -2.1745 0 0 0
-4.9577 13.2868 0.259215 0 0 0
-5.90709 8.93589 -0.329276 0 0 0
-6.88588 9.38037 -0.183041 0 0 0
-5.40838 10.1283 0.129215 0 0 0
-2.14501 7.14019 -1.2938 0 0 0
-5.71755 10.3753 -0.382066 0 0 0
-5.4489 10.2612 -0.196179 0 0 0
-5.20776 12.2123 0.499578 0 0 0
-0.365112 5.85024 -3.47401 0 0 0
-7.05038 9.54634 -1.81677 0 0 0
-6.22311 10.2646 -1.54136 0 0 0
-1.03327 5.16529 -2.83899 0 0 0
-8.17224 9.05877 -2.46656 0 0 0
-3.83025 8.44564 -1.4641 0 0 0
-8.60593 8.58193 -2.60018 0 0 0
-3.16065 8.64688 -1.3013 0 0 0
-3.29964 8.7554 -1.52873 0 0 0
-3.72555 9.26094 -1.84363 0 0 0
-0.411316 4.98588 -2.10479 0 0 0
-3.31264 8.92692 -1.94417 0 0 0
-0.852057 4.71622 -1.60538 0 0 0
-3.13376 8.92013 -2.27092 0 0 0
-3.26327 9.69123 -3.14922 0 0 0
-2.92353 9.89831 -2.73871 0 0 0
-2.74939 9.88861 -2.82582 0 0 0
0.181745 8.04901 -3.72037 0 0 0
-3.06261 9.69691 -3.01795 0 0 0
-0.0238425 4.96617 -2.57849 0 0 0
-2.88867 10.259 -2.68671 0 0 0
-1.99389 4.21931 -2.88458 0 0 0
-2.22909 11.7522 -3.58541 0 0 0
-5.9076 10.1327 -0.242155 0 0 0
-2.10795 11.5007 -3.52152 0 0 0
-2.11416 11.8953 -3.68738 0 0 0
-3.04243 12.8637 -2.74763 0 0 0
-5.50488 5.01965 -2.34027 0 0 0
-2.97162 8.48286 -2.17841 0 0 0
-3.39944 9.33923 -3.12602 0 0 0
-9.13811 8.22331 -2.80096 0 0 0
-6.85325 9.35502 -0.467314 0 0 0
-7.53766 10.0768 -0.0123192 0 0 0
-5.36075 9.46312 -0.329026 0 0 0
0.0363434 3.14465 -1.12393 0 0 0
-8.02219 8.82025 -1.21699 0 0 0
-3.63724 9.85947 -3.55171 0 0 0
-5.18099 9.75415 -0.249155 0 0 0
-2.15737 7.03909 -1.89753 0 0 0
-8.48051 9.34155 -2.00215 0 0 0
-3.22388 8.85595 -2.28424 0 0 0
-8.65277 8.56956 -2.84966 0 0 0
-2.58633 7.79637 -1.26839 0 0 0
-4.94537 10.3228 1.86392 0 0 0
-3.80047 8.62007 -2.65647 0 0 0
-7.08723 9.63915 -0.297247 0 0 0
-6.37496 8.74534 -0.272993 0 0 0
-6.29578 10.4066 -0.505684 0 0 0
-5.31399 12.6375 0.362115 0 0 0
-8.62312 9.45588 -2.34978 0 0 0
-2.46715 7.74763 -2.43118 0 0 0
-8.20061 9.19232 -2.44862 0 0 0
-7.06861 8.65523 -1.95472 0 0 0
-2.69604 7.84772 -1.21556 0 0 0
-2.46341 7.65307 -1.30427 0 0 0
-4.66726 8.39925 1.07817 0 0 0
-2.48613 7.71322 -1.27273 0 0 0
-0.44323 5.83358 -1.71996 0 0 0
-2.60865 7.80221 -1.34101 0 0 0
-2.53871 7.80257 -1.62873 0 0 0
-2.94868 8.37846 -1.81674 0 0 0
-2.78347 8.17462 -2.102 0 0 0
-2.81674 9.65187 -2.83148 0 0 0
-3.02729 9.71658 -2.99326 0 0 0
-4.14726 16.7232 -3.08167 0 0 0
-2.34933 9.89199 -3.00886 0 0 0
-2.34464 9.38717 -2.54538 0 0 0
-2.45478 7.55724 -1.25879 0 0 0
-6.86624 6.53716 -1.63234 0 0 0
-2.24923 6.89565 -1.163 0 0 0
-0.914446 4.51718 -1.22631 0 0 0
-10.0658 6.53256 -1.78992 0 0 0
-6.38615 8.70664 -0.577469 0 0 0
0.362697 7.58436 -1.71214 0 0 0
-7.40609 6.67071 -1.39257 0 0 0
-5.24163 12.8511 0.406727 0 0 0
-5.80662 5.61301 -2.32401 0 0 0
-2.25582 6.99836 -1.24014 0 0 0
1.50973 2.96703 -2.87874 0 0 0
-2.372 7.54886 -1.56152 0 0 0
-5.96847 12.6809 -2.5121 0 0 0
-2.55456 7.91321 -1.99448 0 0 0
-6.52589 15.1952 -2.23577 0 0 0
-6.45327 9.38557 0.278385 0 0 0
-1.32043 8.57294 -1.56623 0 0 0
-8.07346 7.70358 0.241387 0 0 0
-6.96894 7.31344 -2.36881 0 0 0
-3.08886 8.58636 -2.99255 0 0 0
-2.39083 7.53207 -1.50321 0 0 0
-8.55139 7.87385 -2.16798 0 0 0
-6.20602 6.3874 -2.00157 0 0 0
-2.21621 6.90244 -1.15256 0 0 0
-5.38269 12.4665 0.386259 0 0 0
-5.24953 12.3389 0.609961 0 0 0
-5.49851 13.8955 -1.93164 0 0 0
-9.44183 6.3145 -1.97305 0 0 0
-0.183677 6.16476 -1.66282 0 0 0
-6.55617 9.44486 0.495668 0 0 0
-5.32344 4.23041 -1.97412 0 0 0
-6.21812 9.5988 -0.182152 0 0 0
-5.43346 4.82247 -2.59322 0 0 0
-7.80471 6.51419 -0.90438 0 0 0
-5.57729 1.97823 -1.36773 0 0 0
-7.70624 6.09215 -0.890446 0 0 0
-5.0776 2.89511 -1.61279 0 0 0
-7.64424 6.74692 -1.65866 0 0 0
-8.71883 7.39323 -1.18934 0 0 0
-7.79207 6.27712 -1.97049 0 0 0
-9.81167 9.27526 -2.93343 0 0 0
-8.37199 7.71405 -1.77289 0 0 0
-11.4768 18.7314 -3.1069 0 0 0
-5.31559 13.028 -1.86841 0 0 0
-4.97167 13.1007 -1.89375 0 0 0
-7.95168 7.31039 -1.68523 0 0 0
-6.00992 12.7429 -2.03458 0 0 0
-1.10876 5.07676 -1.60829 0 0 0
-7.24307 6.99619 -2.15285 0 0 0
-7.973 7.51406 -2.69977 0 0 0
-6.03885 9.57818 -0.392063 0 0 0
-6.60447 6.87756 -2.68405 0 0 0
-6.33612 6.56054 -2.39567 0 0 0
-7.1075 9.3977 0.666199 0 0 0
-6.44947 6.73041 -1.977 0 0 0
-6.85633 7.39177 -2.44324 0 0 0
-1.98462 6.70616 -1.3058 0 0 0
-3.3141 7.28918 -1.39089 0 0 0
-0.893929 4.33264 -2.03022 0 0 0
-3.49675 8.16909 -1.29158 0 0 0
-5.95047 5.80782 -2.79609 0 0 0
0.742594 3.50742 -3.30623 0 0 0
-2.27909 7.26767 -1.36679 0 0 0
-2.27041 7.28537 -1.50727 0 0 0
-2.29108 7.34267 -1.183 0 0 0
0.141594 2.63263 -0.419499 0 0 0
-2.82532 8.02566 -1.94411 0 0 0
-3.40534 8.5242 -3.11911 0 0 0
-3.46632 8.5392 -3.02944 0 0 0
-3.73294 8.73659 -2.89398 0 0 0
-6.02731 3.92046 -1.36405 0 0 0
-3.0904 8.64131 -2.96434 0 0 0
-2.5809 9.39798 -2.85366 0 0 0
-3.30183 9.90073 -3.09976 0 0 0
-6.18672 4.68151 -1.8067 0 0 0
-3.34696 9.77433 -3.12512 0 0 0
-2.30886 7.32405 -1.67221 0 0 0
-2.66721 8.61405 -2.93028 0 0 0
-2.99898 4.66125 0.756119 0 0 0
-2.81602 8.71355 -2.3521 0 0 0
-1.96833 6.73133 -1.35801 0 0 0
-1.6537 4.71515 -2.81083 0 0 0
0.256726 3.05162 -1.76026 0 0 0
-2.09865 6.74575 -1.26641 0 0 0
-8.17892 7.42645 -1.55702 0 0 0
-3.06124 4.11206 -0.728315 0 0 0
-8.28846 7.65697 -1.17291 0 0 0
-6.16562 6.37174 -2.29999 0 0 0
-6.9603 5.75833 -1.5565 0 0 0
0.182056 0.996252 -2.9833 0 0 0
-6.12193 5.99309 -2.05221 0 0 0
-3.3172 13.6672 -0.371084 0 0 0
-7.87972 6.36637 -0.44593 0 0 0
-0.98165 5.20528 -1.86711 0 0 0
-7.08799 7.79007 0.674546 0 0 0
-6.47644 9.17124 -0.342483 0 0 0
-6.99688 5.85227 -1.62421 0 0 0
-7.79305 6.4584 -1.23371 0 0 0
0.334418 2.55538 -0.116292 0 0 0
2.18614 3.28886 -1.83818 0 0 0
-6.70463 6.15261 -2.0051 0 0 0
-2.15104 7.22932 -2.06614 0 0 0
-2.15146 7.03637 -1.60086 0 0 0
0.619404 2.38501 -2.09294 0 0 0
-2.29924 7.34476 -1.58371 0 0 0
-2.69222 8.05767 -1.95579 0 0 0
-2.70526 8.48074 -2.8716 0 0 0
-5.42998 4.33876 -2.15779 0 0 0
-3.11658 9.52147 -3.07307 0 0 0
-3.1061 8.91604 -2.34089 0 0 0
0.879411 7.07792 -3.68847 0 0 0
-2.65018 5.68486 -1.56411 0 0 0
-5.23215 4.30219 -3.03247 0 0 0
-2.2044 5.62049 -1.47902 0 0 0
-6.53055 9.42638 0.552102 0 0 0
0.737528 1.74043 -1.29736 0 0 0
-5.44518 10.0458 -0.121609 0 0 0
-1.71058 6.21303 -1.48843 0 0 0
-7.89377 6.16736 -0.725626 0 0 0
-6.13644 7.77588 0.596815 0 0 0
-6.7458 9.58308 0.305607 0 0 0
-5.55618 4.97075 -2.22002 0 0 0
-5.21296 4.82333 -2.31915 0 0 0
-5.44237 4.80341 -2.0337 0 0 0
-5.32502 4.68511 -2.74291 0 0 0
-5.29937 4.70614 -2.42077 0 0 0
-2.07689 6.30872 -1.15427 0 0 0
-1.79115 6.38245 -1.16857 0 0 0
-2.03131 6.504 -1.04645 0 0 0
-4.8168 13.2755 0.308956 0 0 0
-2.58038 6.34899 -1.99676 0 0 0
-1.66625 6.26568 -1.34855 0 0 0
-2.06412 6.82012 -1.62991 0 0 0
-2.62269 7.92263 -2.21737 0 0 0
-2.35035 7.48311 -2.14278 0 0 0
-2.355 7.33433 -1.83077 0 0 0
-2.78884 8.20339 -2.12591 0 0 0
-1.51456 0.550465 -1.00046 0 0 0
-2.56535 7.65575 -2.94844 0 0 0
-5.081 12.1276 -1.07527 0 0 0
-1.93283 6.66955 -1.27588 0 0 0
-2.81088 12.8849 0.0818065 0 0 0
-0.372237 8.61234 -3.15934 0 0 0
-3.98448 3.24855 -1.84536 0 0 0
-2.24209 7.22281 -1.48315 0 0 0
-1.07024 5.15412 -1.38374 0 0 0
-2.2697 7.1774 -2.70319 0 0 0
-2.57144 7.93274 -2.24372 0 0 0
-9.46166 6.41179 -0.810976 0 0 0
-2.24027 7.13858 -1.46723 0 0 0
-1.08569 5.19962 -1.34952 0 0 0
-7.11371 11.6196 -0.899403 0 0 0
-3.3184 13.7206 -0.927923 0 0 0
-1.93762 6.75586 -1.47419 0 0 0
-4.57435 3.1985 -1.6139 0 0 0
-4.63319 2.98202 -1.65489 0 0 0
0.0491092 9.79432 -3.70923 0 0 0
-5.02598 2.70801 -1.73598 0 0 0
-5.27034 3.13005 -0.717927 0 0 0
-0.0836229 7.19937 -2.02017 0 0 0
-0.819916 4.74428 -1.69209 0 0 0
-1.04084 5.10839 -1.23131 0 0 0
-1.04664 5.11944 -1.44753 0 0 0
0.0647317 9.77743 -3.70719 0 0 0
-5.60299 10.9949 1.91001 0 0 0
